259 251 243 238 235 235 235 233 231 233 244 258 264 263 261 259 257 260 269 273 274 273 272 270 270 271 271 269 266 261 257 255 252 249 245 242 238 235 232 228 226 227 230 233 237 239 239 236 233 231 232 233 234 231 228 228 229 230 229 227 225 221 216 207 197 187 183 189 202 215 224 225 222 215 204 195 189 184 179 174 172 172 172 175 184 194 205 219 225 230 234 236 250 257 267 277 284 294 304 317 330 339 347 358 371 394 433 483 517 527 524 518 513 508 503 497 491 484 478 473 469 464 457 448 440 437 433 428 423 419 416 412 410 408 404 401 399 396 392 389 385 380 376 373 369 367 365 366 369 370 370 370 369 368 368 368 366 361 355 351 349 349 348 347 347 348 348 346 345 346 347 346 343 339 335 334 334 335 336 336 334 334 334 333 332 332 332 332 332 331 329 329 329 330 327 323 320 321 323 325 327 326 322 318 313 313 314 315 316 317 319 320 321 320 318 317 317 317 318 318 317 317 318 320 319 319 319 320 318 313 305 297 289 283 277 269 262 263 270 280 287 293 295 296 298 301 305 309 310 309 304 299 293 286 279 271 267 272 281 293 303 311 315 319 321 322 321 319 319 320 320 316 310 305 300 299 298 298 296 293 288 284 279 276 275 276 274 270 262 255 251 252 253 257 266 275 281 283 278 270 261 254 251 253 260 265 264 258 252 251 254 259 267 276 287 293 297 301 304 308 310 314 317 322 327 333 335 334 328 322 319 315 313 313 317 321 324 325 326 326 325 323 323 325 327 327 326 325 322 319 316 312 309 307 306 304 297 289 281 279 282 286 285 282 280 281 283 287 292 293 293 292 289 283 279 275 274 273 273 273 273 272 272 272 274 273 271 267 262 260 263 267 270 271 271 270 270 269 268 269 271 269 266 263 261 262 264 266 264 260 259 261 262 258 252 251 250 244 238 240 246 252 260 265 270 273 273 276 279 281 284 286 286 288 290 292 293 294 296 297 298 300 302 304 306 307 308 308 309 317 333 350 351 345 339 339 339 338 337 341 356 379 402 400 374 343 337 359 391 421 423 422 420 420 417 424 436 458 471 479 489 497 506 511 517 530 542 545 548 552 554 555 548 536 520 507 496 501 511 519 526 528 509 479 454 445 437 432 439 465 507 548 570 572 564 547 531 508 480 463 453 450 446 441 442 450 452 436 434 455 485 511 533 549 558 564 560 551 533 509 490 499 516 522 522 524 525 526 533 533 526 520 523 527 534 548 564 573 578 582 583 582 580 580 585 589 584 579 566 524 443 423 493 559 582 581 581 580 574 565 557 548 504 396 301 342 448 523 552 572 590 602 601 595 589 585 585 592 602 606 604 594 582 583 593 597 599 601 599 593 578 562 562 573 586 595 592 579 568 570 576 590 603 609 614 610 598 580 547 496 450 437 449 484 516 538 550 557 561 562 562 566 569 574 582 591 596 598 595 595 596 593 581 568 557 556 563 573 583 593 604 614 622 627 632 641 647 649 649 649 653 657 659 660 663 666 670 671 670 668 669 670 671 673 675 674 668 658 648 641 638 635 632 636 643 643 636 633 631 621 606 589 576 567 560 554 548 541 535 530 525 520 514 507 501 495 491 488 487 486 492 505 518 524 524 523 522 521 520 519 518 521 528 537 540 539 540 539 534 525 520 521 531 543 559 574 583 585 582 580 578 582 579 572 564 558 556 560 565 575 584 593 593 593 593 592 592 592 590 586 573 560 549 541 537 530 519 523 528 527 520 518 520 528 537 544 560 556 545 549 558 560 548 534 528 538 558 581 610 639 664 677 679 661 629 595 566 557 561 570 583 599 613 637 662 685 700 714 729 749 772 794 812 814 811 809 802 780 755 738 728
256 247 239 235 235 234 234 231 232 236 248 262 269 269 267 264 261 264 272 275 274 273 272 271 271 271 272 270 265 260 256 255 252 247 244 241 237 234 233 230 228 229 230 234 237 240 239 239 237 238 240 241 240 237 236 234 233 232 229 226 224 220 213 204 195 187 187 193 206 219 225 226 221 211 199 190 185 179 174 171 172 173 175 179 187 197 206 218 223 227 230 236 252 263 270 277 281 289 301 314 329 338 346 354 361 384 421 474 512 525 522 517 511 506 500 494 488 482 477 472 468 464 457 448 440 437 433 428 421 417 414 413 411 409 406 404 401 397 392 387 383 379 375 373 370 368 367 369 372 373 373 372 371 370 369 369 366 361 356 352 350 350 349 349 350 350 350 348 346 347 348 346 343 340 336 335 335 336 337 337 335 336 335 334 333 333 333 333 333 332 331 331 331 331 329 325 322 322 324 327 328 328 324 318 314 314 315 317 319 320 321 321 322 321 321 319 319 320 320 320 319 318 320 321 321 321 321 321 318 313 305 297 290 285 279 271 263 262 269 279 288 294 299 300 302 304 306 309 312 313 310 304 296 289 283 273 265 265 271 279 290 299 306 311 316 317 315 312 310 311 313 311 307 303 301 300 299 298 297 294 288 285 281 279 280 279 274 266 259 254 254 257 257 258 263 270 276 281 279 271 264 256 252 253 258 264 266 262 256 254 255 256 263 272 279 285 289 293 298 302 308 313 316 321 325 329 330 330 325 321 318 315 314 314 317 321 325 327 330 329 328 326 326 327 328 328 328 327 324 320 315 313 312 310 308 304 296 287 281 280 284 287 286 284 283 282 283 286 291 294 295 294 290 283 279 277 275 274 275 276 276 275 274 275 275 273 268 264 261 261 265 269 272 273 273 273 272 271 270 272 273 270 267 265 264 266 269 267 263 260 260 260 257 254 252 252 251 244 239 242 245 249 253 258 264 267 269 272 275 277 280 283 286 289 292 294 295 296 298 300 301 303 305 307 309 311 311 310 313 325 337 348 348 343 339 342 343 342 343 346 359 384 409 411 392 359 340 356 390 427 439 442 452 455 447 449 455 464 471 480 490 497 503 508 516 528 542 548 552 555 557 555 543 526 516 509 513 522 531 541 546 538 510 479 462 453 445 437 438 454 490 535 567 568 553 529 509 487 471 458 455 457 457 449 452 461 456 440 437 459 492 520 541 553 563 568 566 559 542 519 506 517 536 545 545 543 543 543 539 533 527 526 529 532 536 549 566 578 587 589 590 590 587 587 590 593 588 579 563 518 445 454 522 566 587 589 589 587 580 572 564 554 497 390 293 332 408 478 533 566 592 603 605 601 597 592 592 597 606 612 608 598 587 590 599 604 605 606 601 589 572 564 573 585 596 600 595 582 576 581 585 595 608 616 620 615 596 567 529 485 451 437 445 468 492 514 530 538 543 546 547 550 554 562 571 581 590 596 602 606 607 604 596 584 569 565 571 579 583 592 601 607 614 619 627 636 644 650 653 653 656 661 663 663 663 667 670 674 674 674 673 674 674 675 677 673 663 649 633 623 619 612 610 613 619 616 611 607 604 595 587 576 566 559 554 550 545 540 535 530 525 520 514 508 501 497 493 490 488 487 490 503 516 524 528 527 525 524 523 521 521 528 537 547 550 544 543 544 540 529 521 520 526 538 550 566 578 584 583 580 580 584 581 574 567 561 560 561 565 571 583 593 596 596 597 596 596 595 594 586 575 564 554 548 544 533 523 527 529 528 522 521 528 541 547 554 571 569 557 557 567 565 553 538 534 543 558 578 603 629 655 672 678 664 635 597 569 563 571 579 588 598 609 623 643 666 680 698 718 745 773 803 825 825 818 813 800 771 745 734 730
254 246 238 235 236 236 233 232 236 242 255 266 273 273 269 265 263 266 273 275 275 273 273 273 272 273 272 268 262 258 255 253 250 246 241 239 236 234 233 231 230 229 231 234 237 240 241 241 241 244 247 247 245 243 241 239 236 232 228 225 223 219 214 207 199 193 192 198 208 217 223 225 218 207 195 185 179 174 173 172 174 177 180 184 189 199 209 219 222 223 225 236 252 265 268 270 274 284 297 311 324 333 338 341 346 365 407 463 506 521 521 515 509 503 497 491 485 481 477 473 468 462 454 446 438 434 430 427 423 419 417 416 414 411 408 405 401 396 391 386 383 379 376 374 373 372 370 372 375 376 375 374 373 372 371 369 366 361 356 354 351 351 350 350 350 352 352 351 349 348 348 347 344 341 337 336 336 337 338 338 337 337 337 336 335 335 335 335 334 333 333 333 333 332 330 327 324 323 325 328 330 329 325 319 314 315 316 318 319 322 322 323 323 323 323 321 320 322 323 322 322 321 321 323 323 323 323 322 319 313 305 298 292 286 280 271 262 261 267 278 287 296 302 304 306 307 309 310 314 317 314 307 299 292 284 275 266 263 265 269 277 286 293 299 305 305 304 301 301 302 305 307 305 303 301 300 300 300 299 295 290 286 285 284 283 278 269 261 257 256 259 262 262 259 262 268 273 277 280 273 267 258 254 254 256 261 264 264 259 256 258 256 258 264 268 272 274 279 286 293 300 308 313 317 320 322 323 324 322 320 319 317 314 315 317 321 324 328 331 333 332 330 328 329 330 331 331 328 324 319 315 314 313 311 305 298 290 285 281 280 283 287 288 287 286 287 286 288 289 294 296 295 290 284 281 277 275 275 277 280 279 277 276 275 274 270 267 264 262 262 266 271 273 275 275 275 273 271 273 275 274 272 270 268 269 271 271 268 265 262 260 257 254 252 254 254 251 243 240 244 246 248 252 257 262 267 269 272 274 276 278 281 284 287 291 294 297 299 300 302 303 306 308 310 312 314 314 313 316 325 335 341 344 343 343 346 351 353 352 351 359 385 412 420 406 379 349 355 391 431 454 460 470 478 479 480 483 484 483 487 496 501 508 516 522 532 544 551 555 559 559 553 540 527 526 525 532 541 550 558 559 545 513 487 474 464 455 446 440 451 478 527 561 558 537 513 495 477 467 460 469 477 472 462 459 460 456 441 438 453 477 508 541 557 566 569 569 565 547 529 523 534 551 558 557 554 552 549 543 536 533 534 537 538 540 552 568 584 593 595 596 596 593 594 596 596 587 577 556 493 442 479 540 578 590 597 597 593 587 577 567 548 474 357 288 308 353 414 495 560 588 603 609 608 606 600 600 603 611 617 613 603 593 596 604 611 612 609 604 589 575 572 582 595 604 606 597 585 588 592 595 600 610 621 625 617 591 547 508 475 450 440 444 460 477 497 510 518 524 529 531 535 540 548 557 567 577 588 599 608 614 610 607 598 582 573 583 589 591 598 607 610 613 617 624 631 638 645 652 657 660 664 667 667 666 668 671 675 678 678 678 678 678 677 674 667 653 631 612 605 601 594 589 594 599 599 596 591 584 579 572 565 557 552 549 546 542 537 533 529 524 519 514 508 503 499 495 491 489 488 490 499 513 525 532 532 529 528 527 525 524 531 546 554 555 548 545 546 542 533 525 521 524 533 544 557 567 576 577 575 574 576 576 575 568 564 563 564 566 570 582 592 598 601 601 601 600 599 597 586 575 565 558 555 547 532 528 537 536 533 526 523 535 549 556 566 582 580 570 568 574 567 555 541 540 550 566 586 608 628 649 667 673 660 632 594 573 575 583 592 606 619 616 615 630 647 667 693 717 745 778 812 830 831 826 819 802 767 752 743 752
252 246 238 236 238 239 238 238 242 251 264 272 275 272 269 266 265 268 274 275 275 275 275 274 274 274 272 267 261 256 253 251 248 243 239 237 236 235 233 232 231 231 233 235 238 241 242 242 242 247 250 251 249 247 245 240 234 228 225 222 221 221 219 213 207 202 199 198 202 212 221 223 215 202 189 180 174 172 174 174 178 183 186 187 192 202 212 220 220 218 221 236 251 260 259 262 267 279 291 304 316 323 323 321 327 354 395 454 500 517 517 513 507 501 495 490 486 482 477 472 466 460 452 444 436 432 431 429 426 423 422 420 417 414 410 405 400 395 389 387 385 380 377 377 377 375 373 374 376 378 377 376 375 374 372 370 365 361 357 354 352 352 352 351 351 353 353 352 351 349 349 348 345 341 338 337 337 338 340 339 338 338 338 338 337 336 336 337 336 335 335 334 334 334 333 329 327 325 326 329 331 331 326 320 316 316 317 318 321 324 324 325 325 326 326 323 322 323 325 325 324 323 323 323 324 324 325 324 319 313 305 300 293 286 279 270 261 260 265 275 286 296 304 308 309 311 312 313 316 319 316 308 300 292 283 274 266 265 264 266 272 278 283 288 291 291 292 292 294 296 299 304 303 302 302 302 302 302 301 298 293 290 289 288 282 273 264 259 258 260 264 268 266 261 262 270 275 278 280 276 268 260 258 257 256 258 262 264 260 259 261 258 257 257 259 261 262 266 273 280 288 299 305 310 313 314 316 317 319 320 319 317 315 315 317 319 323 326 331 335 335 333 332 331 332 332 331 327 322 318 316 316 311 304 296 290 286 284 283 280 283 287 289 289 291 293 291 289 288 292 296 297 292 286 281 278 276 277 279 282 281 279 277 274 271 269 268 266 263 263 268 272 275 276 278 277 275 273 275 277 276 274 272 272 274 275 273 270 267 264 261 256 251 252 255 256 251 243 243 247 249 251 256 261 266 271 273 275 276 278 279 281 284 287 290 294 298 301 303 304 306 308 310 313 315 317 318 318 318 322 329 337 342 346 348 354 366 367 360 353 359 382 404 423 419 396 362 357 396 442 466 476 484 489 493 497 500 503 498 496 501 507 516 525 531 540 547 554 559 562 560 549 537 539 543 544 550 556 562 567 564 547 523 506 493 481 467 451 443 450 478 518 552 545 524 505 490 474 466 476 491 493 483 471 466 464 450 438 436 447 463 498 535 557 565 569 570 567 556 544 543 550 563 567 565 562 557 552 547 544 543 544 545 546 550 560 575 590 599 602 603 601 599 601 601 598 586 576 546 487 457 503 547 581 591 601 603 599 590 579 568 537 436 331 296 323 346 410 489 551 584 603 611 613 613 609 607 609 616 622 621 611 601 602 609 616 617 616 612 600 585 580 588 600 609 612 600 591 597 601 602 606 616 625 631 620 586 539 499 474 458 447 446 456 469 483 494 500 506 511 517 521 527 535 543 552 562 576 590 604 617 620 618 609 592 581 591 598 601 608 613 619 622 623 626 630 634 640 648 656 662 667 671 671 671 672 673 675 679 682 682 681 679 673 663 652 633 610 595 588 586 580 577 581 585 587 586 581 575 570 564 558 552 547 544 541 538 534 531 528 523 518 513 508 505 502 497 493 491 490 490 497 510 524 533 534 531 529 529 528 528 535 551 559 555 549 550 548 542 537 533 526 525 530 536 543 552 563 565 563 562 566 572 574 572 570 571 573 574 572 578 587 596 602 605 605 604 604 600 588 578 571 567 560 545 534 540 549 544 532 526 526 537 551 564 574 587 588 580 577 575 565 554 545 547 558 577 597 620 640 654 666 663 647 619 589 579 591 602 615 631 640 632 620 624 643 669 700 727 755 788 820 836 839 839 832 806 766 756 759 787
250 244 239 237 238 242 243 245 251 260 270 275 275 272 269 268 267 271 275 277 276 275 276 277 277 276 272 265 259 255 252 249 245 241 238 236 237 235 234 233 232 233 234 237 240 242 242 242 241 246 250 251 250 248 245 238 230 222 219 215 215 218 220 220 216 210 201 195 197 207 217 218 209 196 183 176 173 172 175 179 184 189 192 192 195 203 213 216 214 213 218 230 243 249 250 253 261 270 282 295 304 305 304 306 318 342 389 450 497 515 515 511 505 499 494 489 486 481 476 470 465 458 450 442 435 433 434 432 430 428 425 423 419 415 410 405 400 394 390 389 386 381 378 379 381 379 377 376 377 379 380 379 377 375 373 369 364 360 358 355 354 353 354 354 352 354 354 354 353 350 350 349 346 342 339 339 339 340 341 341 340 339 339 339 338 338 338 338 338 337 337 336 336 336 334 332 329 328 327 330 332 332 327 322 318 317 317 320 323 325 327 327 327 328 327 325 325 326 327 327 326 325 325 325 326 326 327 325 320 313 306 298 291 284 275 267 260 260 263 273 284 296 306 312 313 314 314 315 318 320 316 308 300 291 281 271 268 268 267 267 268 272 276 279 280 281 285 288 290 292 295 299 301 301 303 303 304 304 302 299 295 293 292 290 281 268 261 262 262 265 268 272 269 263 263 272 276 278 281 275 267 262 261 261 260 261 264 264 260 260 262 258 256 257 259 260 258 261 265 270 278 287 294 300 304 306 309 312 316 319 318 317 316 315 317 319 322 326 331 337 338 337 336 335 334 332 329 325 322 320 319 314 306 297 291 287 288 288 287 283 283 287 291 293 295 297 295 290 287 291 296 298 293 287 282 278 277 277 280 284 282 278 275 272 271 270 268 266 265 266 269 273 276 278 280 279 277 275 278 280 279 277 276 276 277 277 275 272 269 266 261 255 251 253 255 257 251 242 244 250 253 255 260 266 270 274 277 278 279 279 280 282 285 288 290 293 298 301 305 306 308 311 313 315 317 320 322 322 322 322 326 334 341 346 352 363 377 378 366 357 360 369 390 415 423 404 369 362 399 442 462 476 487 499 503 508 513 515 509 506 510 516 522 529 537 545 553 558 563 564 561 549 539 546 556 560 564 568 572 573 569 558 542 523 499 478 462 451 448 457 487 520 543 530 514 496 487 472 477 490 502 493 487 484 477 460 444 437 443 452 463 488 521 546 558 564 569 570 563 562 561 565 573 573 568 563 559 557 555 553 554 554 552 556 561 569 583 594 603 608 609 607 607 607 605 600 588 575 545 496 471 505 551 581 593 602 607 604 594 581 567 517 415 322 310 355 385 437 512 555 585 601 610 617 618 615 615 617 621 626 628 619 609 610 617 623 624 625 623 611 595 591 595 605 615 618 605 597 602 608 611 612 619 629 632 617 579 532 498 480 467 461 457 457 467 476 485 490 495 500 506 510 518 526 532 540 552 569 586 602 616 625 626 616 597 584 592 604 610 615 619 625 629 632 634 636 637 640 645 654 662 670 674 676 676 676 677 678 681 683 681 676 668 654 639 626 612 593 581 577 574 570 569 568 570 574 575 571 569 565 559 554 549 544 541 537 535 532 529 527 523 519 514 510 507 506 501 496 493 492 491 496 508 526 534 532 531 532 532 531 531 539 552 558 555 554 554 548 544 547 545 535 529 530 531 534 540 549 552 550 550 556 567 572 576 579 581 583 581 577 576 581 591 601 607 609 609 608 606 598 589 583 574 558 544 543 552 556 544 530 528 530 538 552 567 579 590 592 586 580 572 563 555 551 553 566 586 606 630 649 662 669 657 633 605 584 589 606 623 639 654 662 648 632 631 648 672 703 736 766 800 833 849 853 854 838 804 765 761 784 820
247 244 240 238 240 245 249 253 260 268 274 276 274 271 269 270 271 273 277 278 277 276 277 279 279 276 270 263 257 253 250 246 243 239 237 237 237 237 236 235 234 235 236 239 242 242 242 242 241 243 247 249 248 245 241 234 225 217 212 207 206 210 214 215 213 208 200 194 196 205 212 209 198 185 176 174 173 175 179 186 191 197 198 199 200 204 207 209 208 209 215 224 234 238 242 249 256 264 274 284 287 288 291 298 313 340 386 449 495 513 512 509 503 498 494 489 483 478 472 467 462 456 449 441 436 436 436 436 434 431 428 424 420 416 410 405 399 393 392 391 387 382 379 381 384 383 380 379 380 381 382 381 379 377 374 369 365 361 358 356 355 356 357 356 354 354 355 355 354 352 351 350 347 344 341 340 340 341 342 343 342 341 341 341 340 339 340 340 340 339 338 338 338 338 336 334 331 330 329 331 334 333 329 324 320 318 318 321 324 327 329 329 329 329 327 326 327 328 329 330 329 328 327 327 328 328 329 325 319 311 303 296 288 280 271 265 261 259 264 273 284 296 307 314 316 316 317 318 320 321 315 306 297 287 278 271 270 271 271 270 270 271 272 274 274 277 280 284 286 288 291 294 297 299 303 304 304 305 304 301 298 297 296 290 277 264 262 265 266 269 272 274 270 263 263 272 278 280 281 274 268 264 265 265 264 265 266 264 261 260 263 261 261 263 266 264 258 259 263 267 272 275 282 289 294 299 304 308 311 314 316 318 318 317 318 320 322 327 333 339 341 340 340 339 337 332 328 326 324 322 320 311 302 294 289 287 290 292 289 286 283 288 294 296 298 300 297 291 287 290 297 298 294 288 283 279 278 280 283 285 282 278 275 273 272 270 267 267 268 268 270 274 277 280 280 279 277 278 282 283 282 280 279 278 278 279 276 273 270 267 262 255 252 253 256 256 248 241 245 253 257 260 265 270 275 278 281 282 282 281 282 284 288 291 292 294 297 301 305 308 310 313 315 317 320 322 325 326 327 326 327 334 342 349 357 368 383 381 368 363 363 364 377 403 418 402 367 364 389 420 438 464 483 499 512 518 522 522 518 516 522 528 533 535 542 550 558 562 566 566 564 551 543 551 563 569 573 575 577 578 575 567 552 526 491 469 459 453 457 475 511 537 538 521 504 489 482 479 491 504 507 497 500 504 484 461 445 441 449 461 470 488 509 529 544 553 563 574 577 576 577 578 578 576 573 570 565 565 563 563 562 562 559 560 568 577 587 597 606 613 615 614 613 610 605 599 586 572 553 518 488 505 554 581 594 603 610 606 596 584 570 519 409 326 312 370 424 479 532 557 580 592 603 615 623 623 624 626 627 630 632 625 614 617 625 631 633 635 632 618 602 603 607 612 622 624 611 604 609 617 622 622 624 630 634 618 580 539 507 488 481 475 471 467 465 473 479 483 487 492 498 505 513 520 525 532 547 570 588 603 617 629 630 620 602 587 591 606 616 621 625 629 633 638 643 645 644 643 645 651 660 669 677 680 681 681 680 680 679 677 667 654 642 627 610 599 590 584 575 569 566 563 561 560 562 565 564 562 562 561 556 551 546 543 539 536 534 531 530 528 524 520 516 513 511 510 505 501 497 495 494 496 510 527 535 533 532 533 532 532 533 542 553 557 558 560 558 549 551 558 556 545 537 533 532 533 536 540 541 542 542 548 558 568 577 585 591 592 588 583 580 579 587 596 602 610 613 612 610 606 600 591 573 558 553 554 561 559 544 531 530 533 539 552 569 584 596 593 584 576 569 564 561 562 564 568 581 603 631 657 670 672 654 628 603 590 603 624 644 659 675 682 666 648 640 653 675 705 738 775 812 847 866 871 858 831 793 764 770 802 844
244 243 240 239 246 251 257 263 269 274 275 276 274 271 271 273 275 277 279 278 277 277 278 280 278 273 266 260 255 251 247 244 241 238 238 238 239 239 239 239 238 237 239 241 241 241 241 241 241 241 243 245 245 241 236 228 220 212 206 202 202 203 204 204 204 201 197 194 196 203 208 197 187 178 174 173 175 178 186 195 202 205 205 205 206 205 207 208 209 212 216 222 227 234 240 246 252 259 266 270 273 278 285 297 313 343 389 452 498 511 510 506 501 495 490 485 479 474 469 464 460 454 447 440 439 439 439 437 434 431 428 424 420 416 410 404 399 394 393 391 387 383 381 382 386 386 384 382 383 383 384 382 380 377 374 369 365 361 359 357 356 358 358 358 356 356 357 357 355 353 352 352 348 345 342 341 341 343 344 345 344 343 343 342 342 341 341 341 342 341 340 340 341 340 339 337 334 330 331 333 335 335 331 326 322 320 321 321 325 329 331 331 331 330 328 327 329 330 331 332 332 331 329 329 329 330 330 325 318 310 301 294 286 276 268 266 264 261 264 273 283 294 306 315 318 319 320 322 323 322 314 303 293 283 276 270 271 274 276 275 274 272 271 271 271 273 277 281 283 285 287 291 295 298 303 304 305 306 306 304 301 300 298 289 274 263 262 267 271 273 274 275 269 265 264 273 281 283 281 275 271 269 268 268 268 269 270 264 261 261 264 265 266 270 272 267 260 260 266 270 271 272 275 281 287 294 299 302 305 309 312 317 319 319 320 322 322 326 332 338 341 342 342 342 338 332 329 328 325 323 318 310 302 295 290 289 293 294 289 285 285 291 297 300 301 302 298 292 290 291 298 299 296 289 283 280 280 283 286 286 282 278 276 275 274 269 268 270 272 272 271 275 278 280 280 278 278 281 286 288 286 284 282 281 281 280 277 274 271 267 263 256 253 253 254 251 242 240 248 255 259 263 268 272 278 281 285 285 285 284 285 287 291 294 295 296 299 302 306 310 313 316 318 320 322 325 328 330 330 329 330 336 345 352 359 372 384 382 370 373 374 371 374 396 412 397 370 365 380 396 411 438 466 490 505 515 520 523 523 528 535 541 543 543 548 555 562 566 569 569 566 554 548 556 569 576 579 580 581 581 579 573 550 514 484 463 456 459 474 505 536 547 534 516 500 488 489 495 509 522 514 509 512 511 488 463 447 445 453 464 478 491 510 526 541 553 566 577 582 583 588 587 585 583 583 579 572 572 571 575 573 570 564 564 569 580 590 599 609 617 619 617 614 608 601 595 590 575 558 529 500 509 557 581 595 605 613 609 599 589 576 530 434 341 310 357 441 501 541 558 574 585 596 612 625 630 633 634 634 634 635 625 618 622 630 638 641 643 638 623 611 613 615 622 630 629 617 612 618 626 632 632 633 635 637 625 596 553 519 499 486 480 476 472 470 476 482 485 489 492 495 503 511 516 519 527 546 573 595 610 623 634 635 624 606 591 594 610 621 627 632 635 637 642 648 652 651 647 645 650 657 666 675 680 683 683 682 680 674 661 643 624 610 596 586 579 576 574 571 565 561 558 556 555 556 556 554 555 556 557 554 549 546 543 539 536 534 531 530 528 526 522 518 516 515 514 510 505 501 497 496 499 512 529 536 535 533 532 532 534 537 546 554 560 566 568 561 550 554 564 564 553 547 541 535 535 538 542 541 539 539 542 550 559 571 586 596 601 599 595 587 581 584 592 597 606 614 616 615 611 605 590 575 569 566 566 566 558 545 535 533 535 540 551 570 589 600 595 584 577 571 569 568 572 576 578 583 601 628 653 667 672 659 635 612 599 615 638 660 676 691 702 691 672 655 657 676 706 740 783 826 862 881 873 848 821 793 769 772 807 853
241 241 239 242 251 259 265 271 276 277 276 275 273 271 272 276 278 280 279 278 277 278 279 280 277 269 262 257 253 250 246 244 241 239 238 239 241 242 244 245 243 240 240 241 240 240 239 240 241 240 240 240 241 236 229 221 214 210 206 203 202 202 201 201 198 195 194 194 199 204 203 191 181 174 172 175 178 183 192 202 209 211 211 211 211 213 214 214 215 220 225 227 231 235 239 244 250 255 260 261 265 274 285 298 314 339 388 449 495 509 509 503 498 492 487 481 477 472 467 463 459 454 446 441 440 440 439 437 434 431 427 424 420 415 409 405 400 396 394 392 387 383 383 384 387 388 387 386 386 385 385 383 381 377 373 369 365 362 359 358 358 359 360 359 358 358 359 359 357 355 354 353 350 346 343 341 342 345 347 347 347 346 345 344 343 343 343 343 343 343 342 343 343 342 341 339 336 332 333 335 337 337 333 327 323 321 321 322 327 331 333 333 332 331 329 329 331 333 334 334 334 333 332 330 331 332 332 327 319 310 302 295 285 274 266 266 266 261 263 271 280 292 303 313 319 322 324 325 326 323 313 301 290 282 276 271 272 276 279 280 277 273 272 273 273 273 277 281 283 285 288 291 295 300 304 305 306 306 306 305 304 302 297 285 271 263 262 268 273 275 276 276 272 269 266 272 280 284 282 279 277 275 273 273 273 273 272 267 261 261 264 266 269 274 276 269 261 263 270 276 277 273 274 279 284 288 292 296 300 304 309 315 319 321 323 323 323 326 330 334 338 340 344 343 339 333 330 327 324 320 314 309 302 297 292 293 295 293 287 284 287 293 300 304 304 303 299 294 290 291 299 303 298 290 283 281 283 286 288 287 283 279 278 278 274 270 269 273 276 275 274 276 278 279 280 279 279 285 290 291 290 287 284 283 284 282 278 275 271 267 263 259 255 253 252 246 237 240 248 256 260 264 268 274 279 283 287 287 288 287 289 291 295 298 298 299 301 304 307 313 317 319 320 322 325 328 331 332 333 332 334 339 347 355 364 374 385 383 374 382 386 378 377 395 415 406 384 371 378 395 407 416 440 464 483 496 509 518 524 534 542 549 551 550 554 560 566 570 573 572 568 557 554 565 575 580 581 578 572 569 565 559 539 507 478 463 459 474 501 538 556 549 531 512 500 500 509 522 533 532 523 520 516 502 484 463 453 451 452 462 480 499 524 544 552 559 569 580 588 593 597 595 592 592 592 586 579 578 582 587 586 580 571 568 571 582 592 602 611 620 620 617 612 605 599 593 590 581 564 538 521 533 560 581 595 606 614 612 606 599 588 549 470 383 320 346 435 514 552 568 582 589 598 612 626 635 639 641 642 641 637 628 623 629 637 644 648 649 640 628 619 621 626 632 639 635 623 622 628 634 640 641 642 643 644 636 612 573 533 509 494 487 481 476 474 479 485 490 492 495 499 506 513 517 521 527 546 572 597 613 626 638 640 630 611 598 599 614 625 633 640 643 644 646 650 652 646 639 637 641 648 658 669 676 677 678 679 671 657 639 619 598 586 577 571 567 565 564 564 561 558 554 552 550 548 547 548 550 550 551 551 548 546 543 540 537 534 531 530 528 526 521 518 517 518 517 514 510 506 502 498 503 520 534 539 539 536 533 534 537 540 549 559 568 574 572 561 552 557 567 570 564 556 545 537 538 543 547 545 544 542 543 546 552 563 581 597 608 610 604 594 586 590 592 595 603 613 616 618 616 606 593 586 585 582 577 572 564 550 538 536 539 542 552 573 592 604 600 591 583 578 575 573 577 586 590 594 603 622 642 660 672 670 649 622 607 617 640 663 685 704 720 717 695 671 664 678 707 749 795 840 874 883 866 843 820 798 774 774 806 852
240 242 243 247 255 266 273 278 280 279 278 276 274 273 275 279 281 280 279 278 279 279 280 280 274 266 260 255 251 248 246 244 242 240 239 241 243 247 249 250 247 244 242 240 237 236 235 237 238 238 235 235 235 230 224 215 211 211 208 206 206 208 208 205 201 196 196 199 205 208 200 186 177 174 175 178 181 189 198 207 212 214 215 215 217 220 222 223 227 232 235 235 235 237 240 244 249 254 255 256 263 272 284 298 313 336 380 441 490 506 506 502 496 491 485 480 476 472 468 464 459 454 447 442 441 440 439 436 433 429 426 423 419 415 410 406 401 397 395 393 388 385 385 386 388 389 388 388 388 388 387 385 382 376 372 368 365 363 362 361 361 360 361 361 360 360 361 360 359 357 355 354 351 347 343 342 343 346 349 350 350 349 348 346 346 345 344 345 345 345 344 344 345 344 343 341 338 335 335 337 338 338 334 329 325 323 323 324 327 332 335 335 335 333 331 331 333 335 336 336 337 336 334 333 333 334 333 327 319 310 303 296 285 273 265 265 264 260 262 267 275 285 296 307 316 322 325 327 326 320 311 299 289 281 275 272 273 277 281 283 280 276 275 275 274 274 277 281 284 287 291 295 298 302 306 307 307 308 308 308 305 298 289 279 268 263 263 269 274 277 279 278 275 272 269 272 278 280 284 285 282 280 279 277 276 277 277 271 264 261 262 265 269 275 278 271 263 264 271 279 282 279 278 280 282 286 289 295 300 304 308 313 317 321 324 324 324 325 328 331 334 339 344 343 338 333 329 323 317 313 309 306 301 296 293 297 296 290 285 285 289 295 301 304 305 304 300 295 291 292 299 303 299 290 284 283 286 289 288 285 282 280 280 279 275 271 271 275 279 279 278 278 278 280 280 281 283 288 294 294 292 290 287 286 286 284 280 276 272 267 264 260 257 255 251 243 236 238 245 255 260 265 268 272 277 282 287 289 289 291 293 295 300 303 302 302 304 305 309 315 319 320 323 325 327 330 333 335 336 336 337 343 352 360 368 378 389 387 380 389 397 386 379 398 420 424 407 390 393 416 427 421 429 448 461 472 485 502 525 537 547 553 557 558 561 565 571 574 576 573 566 558 560 571 579 580 572 560 544 538 534 530 520 496 475 460 463 491 532 554 560 542 523 511 516 525 536 549 551 542 531 523 509 491 474 461 459 459 456 461 475 504 540 561 565 568 573 583 593 599 604 601 600 600 600 593 585 584 591 597 597 590 580 574 575 582 590 599 609 618 621 617 611 604 598 595 591 586 575 560 550 556 572 583 596 606 614 615 614 607 593 568 508 425 350 344 428 520 565 582 596 597 603 616 627 638 643 647 651 650 645 638 634 636 643 651 655 655 648 635 627 627 634 642 647 641 630 633 638 643 647 649 650 651 652 646 627 591 548 519 501 492 486 480 479 484 491 498 501 504 508 518 525 527 530 534 550 573 598 613 625 637 641 632 617 602 605 617 629 638 646 652 650 644 644 640 625 620 616 620 628 638 650 660 664 665 664 653 637 620 599 581 572 566 562 559 556 555 555 557 556 553 549 546 544 543 543 545 547 548 549 548 545 542 539 536 533 530 528 526 524 520 517 517 519 518 517 515 510 505 502 507 526 539 544 542 539 536 537 540 545 554 567 576 579 572 561 555 563 570 574 572 561 546 540 541 547 551 550 548 547 547 547 549 557 573 591 608 617 612 601 593 599 601 599 601 609 614 618 620 613 603 603 602 594 586 580 572 556 540 540 543 547 554 573 592 604 604 597 593 589 586 580 582 593 603 609 617 627 642 661 680 682 660 632 615 620 634 655 678 703 733 738 715 689 680 689 715 754 801 847 873 877 864 844 823 800 776 780 810 853
241 244 246 252 261 272 280 282 282 280 279 277 274 274 278 282 282 280 279 280 281 281 281 278 272 264 258 253 250 247 245 243 242 241 241 242 245 249 253 252 248 244 241 237 233 231 231 234 236 234 231 229 228 224 217 213 212 213 211 211 213 215 214 210 202 199 201 208 213 209 195 182 176 176 178 180 186 194 202 209 214 217 218 218 219 223 229 231 237 242 243 241 239 239 240 243 247 250 251 253 262 271 282 294 310 332 373 434 483 501 504 501 495 490 484 481 477 473 469 465 459 454 448 444 442 440 438 435 431 427 424 422 419 415 411 407 401 399 397 394 389 387 388 388 389 390 390 391 391 390 388 386 381 376 370 368 367 366 365 364 363 361 362 363 363 362 363 362 361 359 357 355 352 348 345 342 344 347 350 353 353 351 349 348 348 347 346 346 348 348 346 346 347 346 346 343 340 338 338 338 339 339 335 331 327 324 324 325 329 333 336 337 337 335 333 333 335 336 337 338 339 339 338 335 335 336 334 327 320 311 303 294 283 271 264 263 262 260 261 265 270 278 289 299 308 316 321 324 322 314 305 296 287 280 274 272 274 279 283 284 281 278 278 277 276 276 278 282 286 290 294 298 301 305 308 309 309 309 309 307 300 290 281 273 268 264 265 271 276 280 282 280 277 274 272 271 275 279 284 289 289 287 284 282 280 281 282 276 266 263 263 265 268 276 280 274 266 264 268 274 279 283 286 289 291 292 293 297 302 306 309 312 315 319 323 326 326 327 329 331 334 338 343 343 338 333 325 318 312 307 303 299 296 294 296 299 294 288 285 287 290 295 301 305 307 307 304 299 293 293 298 302 297 289 285 285 287 288 286 284 282 282 283 281 277 272 273 276 280 282 281 280 280 282 283 284 288 293 296 297 295 293 290 288 288 285 282 278 273 268 264 262 258 257 253 245 237 237 243 254 261 265 268 271 275 279 284 289 293 296 298 302 307 309 308 306 307 308 311 316 320 323 325 328 330 332 335 337 339 339 342 348 357 365 372 385 397 393 387 396 407 396 384 396 420 437 433 417 421 443 445 420 417 430 447 459 467 488 513 533 546 555 561 565 568 570 575 579 578 571 562 560 566 575 581 571 555 532 514 506 501 497 493 484 472 463 469 506 553 565 555 534 523 534 547 557 565 568 563 552 541 520 502 484 469 468 471 470 465 460 470 504 543 568 577 578 580 587 595 602 608 607 606 608 607 599 591 589 597 605 605 599 590 584 582 582 588 594 604 614 620 617 610 604 599 599 598 593 585 577 572 570 579 589 599 607 615 621 620 614 598 577 532 455 380 351 434 530 578 595 609 608 608 617 628 640 646 652 659 660 654 651 647 646 651 659 662 662 657 647 636 632 641 652 656 648 637 639 644 650 655 658 658 659 660 656 641 602 558 524 506 496 489 485 484 490 497 505 512 517 527 539 548 549 548 548 557 576 599 614 624 634 638 630 619 607 610 619 628 637 645 648 644 637 628 616 601 595 591 594 602 609 622 632 637 641 638 628 617 604 587 571 564 564 561 556 551 549 549 552 553 552 549 547 545 541 540 542 544 545 547 546 543 539 536 533 531 528 526 524 522 519 517 517 519 520 519 517 513 507 504 511 529 542 547 545 542 539 542 547 552 562 577 584 577 569 561 561 568 574 577 572 558 545 544 546 550 553 555 553 551 549 549 551 555 564 581 601 616 617 608 598 604 611 606 601 603 610 617 623 621 618 620 618 609 597 589 575 555 543 544 547 554 561 572 589 603 609 609 606 602 597 588 585 594 610 623 633 643 655 670 688 693 670 639 624 626 635 650 674 709 741 746 728 708 699 705 727 765 808 851 866 870 858 837 817 794 783 790 820 859
248 250 253 258 266 277 283 285 283 281 279 277 277 279 281 283 282 281 280 281 282 282 281 276 268 261 255 252 249 247 245 244 243 243 243 243 247 250 252 250 246 241 237 233 229 227 227 230 233 230 227 226 223 220 216 213 213 214 215 217 219 220 216 210 203 202 207 215 216 206 189 179 176 178 180 182 189 197 205 211 216 217 218 219 220 226 232 238 243 246 246 245 243 243 239 240 244 245 247 253 260 268 278 288 303 328 366 424 474 496 501 500 494 489 485 481 477 474 469 465 459 454 450 446 443 440 438 435 431 427 423 421 419 415 411 407 402 400 399 394 390 388 389 391 392 392 393 393 392 391 389 387 381 375 371 370 369 369 368 367 365 363 364 365 365 365 364 363 362 361 359 358 354 350 347 344 345 348 352 355 354 353 351 351 350 349 347 349 350 350 348 348 348 348 348 345 342 341 340 340 341 340 335 332 329 326 325 327 331 335 338 339 339 338 336 336 336 338 339 340 342 342 340 338 337 336 332 325 317 309 299 289 280 270 263 262 261 260 263 265 268 274 280 290 298 307 313 317 314 309 301 293 285 279 274 275 277 279 284 285 285 282 281 281 280 278 279 281 283 289 295 300 304 308 311 311 312 310 307 302 293 283 277 272 268 266 267 273 278 282 285 282 280 276 274 274 275 278 285 292 296 294 290 287 285 286 286 278 268 266 265 266 268 277 282 278 272 268 267 269 275 283 292 299 300 301 299 299 303 308 311 314 316 319 323 326 327 330 332 334 336 338 340 339 337 330 322 315 309 303 299 297 294 295 300 300 293 286 286 290 293 296 301 306 309 310 308 301 296 294 297 301 296 290 287 286 286 285 284 284 285 285 285 283 278 274 276 277 281 284 284 284 284 285 286 288 294 299 301 301 300 296 293 291 288 286 283 278 273 269 265 262 258 259 257 251 243 240 243 253 263 269 272 274 276 281 286 291 295 299 304 311 316 315 313 311 310 310 312 316 320 324 327 330 332 334 337 339 341 343 345 350 360 369 377 392 406 407 400 404 416 407 391 395 415 433 443 436 442 458 456 431 420 438 457 456 456 477 503 525 537 549 562 569 573 576 580 582 576 569 562 566 572 580 577 563 534 509 495 487 485 482 480 475 468 468 476 515 560 568 547 534 540 560 575 581 580 579 572 563 543 518 496 480 475 480 489 486 476 466 468 494 537 572 585 589 590 592 598 604 610 613 613 614 612 605 596 594 601 609 612 607 599 594 591 587 586 590 600 612 622 619 611 604 601 603 605 600 595 595 589 585 589 597 604 613 621 627 626 618 603 581 525 441 364 362 447 542 585 603 618 619 616 620 630 642 650 658 666 667 665 663 660 658 658 665 668 669 666 658 646 640 647 656 661 653 643 645 650 656 662 666 667 668 668 663 641 597 554 528 513 501 493 489 490 496 503 512 525 535 549 563 575 581 575 562 563 582 601 613 623 634 637 629 619 611 612 613 615 620 628 629 621 610 599 589 579 574 571 569 571 576 587 595 601 603 601 595 592 585 575 562 558 561 562 557 552 547 544 547 550 549 548 546 544 539 538 540 543 544 546 544 540 537 534 532 529 526 524 522 520 518 516 517 519 521 521 519 514 508 505 510 525 538 546 549 546 545 546 552 558 571 584 582 573 565 561 566 576 584 580 569 555 547 549 551 553 556 558 557 553 550 551 555 559 562 573 587 605 620 614 603 606 616 614 608 604 608 615 621 626 629 632 630 622 610 596 573 553 548 548 556 570 575 577 586 599 611 618 618 614 605 596 590 594 611 630 643 662 675 687 702 700 673 643 635 638 643 652 673 708 742 759 745 734 724 726 749 782 816 853 876 879 859 830 808 794 800 814 839 875
255 257 259 263 270 280 286 286 284 283 281 280 281 283 285 284 283 281 282 283 284 283 281 274 265 259 254 251 249 248 247 247 246 245 245 245 246 249 250 246 241 237 232 228 226 226 227 230 233 232 230 229 226 222 219 216 218 219 220 222 223 219 213 207 204 206 214 221 217 199 183 177 178 180 182 184 192 200 206 210 213 215 212 211 217 227 235 241 248 249 250 249 248 245 241 237 239 241 245 249 255 263 274 284 296 318 352 400 451 482 496 497 493 489 485 481 477 474 469 465 460 456 451 447 443 441 439 436 432 427 424 421 417 414 410 406 403 401 399 395 390 389 390 393 394 395 395 395 394 391 389 385 380 375 372 372 372 371 370 369 367 365 365 367 368 367 366 364 364 363 361 360 356 353 350 347 346 349 352 356 356 355 354 353 353 351 351 352 353 352 350 349 350 351 350 347 344 343 343 342 342 341 336 332 329 327 327 329 333 337 340 342 342 341 339 338 339 340 340 342 344 344 342 340 338 336 329 320 312 303 292 281 273 267 263 262 261 262 265 267 269 272 277 283 291 297 304 310 307 305 298 290 283 278 275 278 281 283 284 286 288 286 284 284 284 282 280 281 282 288 295 299 303 307 309 310 310 309 306 298 288 281 277 274 272 268 269 274 280 286 288 286 282 278 278 278 277 278 285 293 299 300 296 292 290 290 285 277 271 269 267 266 268 275 281 283 279 275 271 269 271 279 291 301 306 307 306 305 306 309 313 316 318 321 323 326 329 332 335 338 338 340 337 336 332 326 320 313 307 302 300 299 298 300 300 295 288 285 286 291 295 298 302 308 313 313 308 302 298 297 299 300 297 293 289 287 285 283 283 285 289 289 288 285 279 276 279 280 281 284 286 287 287 288 290 294 301 305 306 306 303 297 294 291 288 286 281 277 272 269 265 261 259 261 261 258 251 246 244 252 263 273 277 278 280 283 288 294 298 302 309 318 323 321 318 316 314 314 315 318 321 325 328 331 333 337 339 341 344 346 347 352 360 367 375 393 413 422 415 415 425 422 407 405 412 427 445 446 450 464 469 452 437 452 462 458 457 479 499 517 529 542 558 571 576 580 583 584 575 568 567 575 581 587 576 550 522 499 485 484 485 483 479 474 471 472 485 524 565 569 553 544 556 578 590 593 591 587 580 568 543 517 496 482 483 495 505 498 485 469 469 493 529 567 585 595 599 599 603 608 613 618 620 620 616 609 601 600 607 616 618 614 610 604 596 590 590 592 601 614 626 623 614 607 604 606 608 608 607 608 603 600 600 602 610 619 628 633 630 620 605 577 506 419 360 373 460 554 593 611 626 628 625 627 636 645 655 662 669 674 675 673 671 665 665 671 673 674 673 667 656 648 650 657 664 658 651 651 655 661 667 673 676 677 676 667 637 590 554 534 521 510 497 492 493 501 509 521 538 555 571 586 599 606 599 582 570 579 593 607 622 636 641 632 622 614 609 604 600 599 601 601 594 587 579 570 566 565 563 561 556 555 562 565 569 568 565 562 562 565 561 553 552 554 557 558 552 543 540 543 546 545 544 542 540 538 537 539 541 543 544 542 538 535 533 531 528 526 523 522 520 518 516 517 519 521 522 521 517 511 507 509 518 531 545 550 552 553 553 555 563 574 583 577 572 568 565 572 588 593 585 569 556 552 555 556 556 558 560 560 557 553 554 560 565 566 570 582 600 618 616 608 609 619 621 618 609 606 613 618 624 630 639 640 634 622 599 571 554 550 552 567 583 591 589 593 602 613 622 624 622 613 605 597 596 609 628 640 662 684 704 718 709 677 647 642 652 657 661 676 703 740 768 772 765 755 752 770 802 829 856 885 886 864 833 806 811 830 848 864 895
259 261 262 267 274 281 284 285 285 285 284 284 285 286 287 286 283 282 283 284 285 284 279 270 261 256 254 253 251 251 251 250 249 248 246 245 245 246 245 241 237 232 229 226 226 226 228 233 238 238 237 235 232 229 225 223 223 224 225 227 223 216 209 205 207 213 220 223 212 192 180 177 179 182 184 187 194 200 204 208 210 208 204 204 213 224 233 243 250 252 252 251 250 245 241 236 236 237 241 245 250 259 269 277 288 308 333 373 420 457 483 491 492 489 485 481 477 473 470 465 461 456 452 447 444 442 441 437 432 429 427 424 420 415 411 408 405 402 399 395 390 390 391 393 395 396 397 397 394 391 388 383 377 375 375 375 375 373 372 372 370 367 367 368 370 370 369 367 366 366 364 363 359 355 353 350 348 349 353 356 358 357 356 356 355 353 353 354 355 354 352 351 352 353 352 349 347 346 346 345 345 341 336 333 330 328 328 331 335 339 342 345 344 344 342 341 341 342 343 344 346 346 344 342 338 332 324 314 305 295 285 275 270 266 263 263 264 263 266 270 272 273 276 280 286 291 297 302 303 301 296 289 282 278 277 281 285 287 288 289 290 289 287 288 288 284 282 282 282 285 290 294 296 299 301 303 304 305 304 297 288 282 280 279 276 272 271 273 281 287 290 288 285 280 280 283 282 279 284 292 299 302 300 297 295 294 287 280 274 272 270 269 268 274 280 286 284 283 279 274 272 275 285 294 302 307 309 310 310 312 315 318 321 324 326 327 329 332 335 339 341 340 336 332 327 323 318 312 305 303 303 303 302 300 297 291 285 284 285 290 296 302 307 313 313 312 307 303 300 300 301 302 301 296 291 288 285 283 284 288 293 293 291 286 280 279 280 282 282 284 288 290 291 292 294 300 306 310 311 308 303 298 293 290 287 283 279 275 271 268 264 261 261 262 263 263 259 251 243 249 261 274 280 283 285 288 291 297 302 306 314 323 326 324 323 321 318 317 319 320 322 325 329 332 335 339 341 344 346 348 349 352 358 365 371 388 412 433 429 426 438 436 427 422 419 429 448 457 461 471 480 469 456 461 463 463 466 487 508 521 529 538 554 570 579 583 587 586 578 572 572 580 588 592 580 552 523 499 487 491 497 500 495 490 487 486 502 538 571 572 558 552 568 589 597 601 598 591 577 557 534 510 494 489 494 507 513 501 485 473 475 489 521 549 576 593 601 604 609 614 619 624 626 623 616 609 605 605 613 622 625 624 618 609 599 595 597 598 604 617 626 624 617 611 611 611 613 615 615 617 616 612 610 607 613 622 633 639 633 622 600 549 466 382 355 377 477 565 601 619 635 637 635 635 644 653 660 664 672 680 682 682 680 674 673 678 679 679 679 676 665 657 654 659 665 666 661 657 661 667 673 679 684 685 681 672 636 590 564 549 537 522 504 495 498 505 517 534 554 575 588 598 610 622 615 592 574 573 582 596 619 641 646 636 623 614 603 594 587 582 582 580 579 573 566 561 560 560 561 557 549 547 551 553 552 549 544 540 542 545 546 545 544 544 548 551 547 539 537 540 541 541 540 539 537 535 535 537 540 542 543 540 537 534 531 529 527 525 523 522 521 519 517 518 520 523 523 523 521 516 511 510 513 525 542 555 560 560 561 561 568 578 581 578 579 571 568 577 596 600 587 568 557 561 565 564 561 561 562 564 560 555 555 562 569 572 573 580 599 616 612 606 611 620 623 622 613 615 619 618 622 630 640 646 644 629 597 570 556 552 558 579 598 604 606 609 614 619 628 629 628 626 618 610 602 607 621 637 659 681 704 725 718 686 654 649 660 671 674 682 703 735 769 788 792 787 780 792 819 845 871 893 889 862 830 814 832 861 880 892 915
259 263 266 270 276 280 282 284 286 287 288 289 289 289 289 286 284 282 284 285 286 283 275 265 258 256 255 255 256 256 255 253 250 248 246 245 242 243 241 237 233 230 228 227 228 230 232 239 244 245 243 242 238 234 231 228 227 227 228 226 220 212 206 206 212 221 225 221 205 187 178 177 178 180 183 187 192 196 198 199 200 197 193 194 200 212 225 237 245 248 248 248 248 246 242 239 236 233 236 240 246 255 261 268 277 294 313 344 385 425 458 478 488 488 485 481 477 473 468 464 459 456 451 448 445 444 441 438 433 431 430 427 422 417 412 410 406 402 398 394 391 391 392 393 395 397 399 398 396 391 387 381 377 377 378 379 377 376 375 374 371 368 368 370 372 372 371 369 368 367 366 365 362 358 355 352 350 349 352 355 358 359 359 358 357 356 356 357 358 357 355 353 355 356 355 351 350 349 349 348 346 342 337 334 332 329 330 332 336 340 344 346 346 346 345 344 344 345 346 347 347 348 346 342 335 327 317 307 298 288 279 273 269 267 265 266 266 265 267 272 275 276 278 277 281 286 291 295 297 296 295 288 283 281 279 283 287 290 292 292 292 290 288 290 289 287 286 286 283 284 285 287 288 290 292 294 297 300 300 297 290 286 286 284 281 275 271 273 281 288 292 291 286 282 282 286 286 283 283 290 295 299 300 301 300 298 292 285 278 277 275 271 271 274 280 285 288 290 289 285 278 274 276 283 290 299 305 310 312 313 316 320 323 326 328 329 330 332 336 339 342 341 334 328 322 319 316 310 305 306 307 306 303 298 293 287 285 285 285 291 297 304 312 317 315 311 308 305 303 302 302 305 306 300 293 289 285 284 287 292 297 297 293 288 283 280 282 284 284 285 289 292 293 295 299 306 311 314 313 307 301 296 292 288 285 282 278 274 271 268 265 264 263 263 264 264 262 254 243 242 254 272 282 287 289 291 294 301 306 311 317 322 324 325 326 324 322 321 321 322 324 328 332 334 337 341 343 346 348 350 352 353 357 363 369 384 414 438 441 438 446 447 445 440 430 435 452 468 472 481 491 481 472 465 465 466 476 493 512 530 538 543 553 568 579 587 590 588 581 577 578 586 593 596 586 558 531 505 496 494 503 513 523 517 510 509 525 558 583 576 564 561 577 595 605 604 598 585 563 542 522 505 495 497 503 514 510 497 482 477 479 491 508 529 556 581 591 603 612 619 625 629 628 623 616 611 609 611 619 627 631 629 621 612 602 600 604 604 609 621 629 625 620 620 620 619 622 624 623 625 626 624 618 614 616 625 637 640 631 617 576 509 426 358 343 380 485 568 610 627 643 647 644 644 653 661 668 670 676 685 688 690 688 681 679 684 687 685 685 684 675 666 662 663 669 675 671 665 666 673 679 685 691 693 690 680 647 605 579 565 546 524 507 500 502 510 528 547 567 584 593 600 612 621 611 590 576 573 574 587 612 642 649 639 623 609 594 586 580 574 571 570 569 566 560 555 554 557 558 552 543 542 544 547 546 542 536 531 529 531 534 537 536 535 536 538 537 533 535 538 538 536 535 535 534 532 533 536 538 540 541 538 534 532 530 528 526 525 523 522 521 520 518 519 521 524 524 524 525 522 517 512 513 524 542 557 567 568 568 568 572 581 583 588 588 579 570 581 599 601 585 565 560 568 571 569 566 565 566 567 562 556 556 562 570 575 578 586 603 614 610 609 613 619 623 620 616 625 629 621 622 628 637 648 647 629 596 571 560 555 558 576 597 611 620 625 629 633 636 639 642 642 634 623 615 614 626 642 659 679 706 730 731 705 670 657 666 681 688 693 709 736 769 795 813 815 807 814 836 862 888 901 883 852 825 829 853 887 908 919 932
256 261 266 272 276 279 282 284 288 291 292 292 291 291 290 287 284 284 285 287 286 281 272 264 259 258 259 260 261 260 258 254 249 248 245 243 240 239 237 234 232 231 230 232 234 235 234 241 246 250 248 246 241 237 233 229 227 225 224 222 216 209 205 206 216 225 226 217 199 183 177 176 177 179 181 184 187 188 189 189 190 187 184 184 189 196 207 220 230 236 238 238 240 240 242 243 239 233 231 235 242 248 253 259 267 278 292 315 348 387 421 447 470 481 482 479 476 472 467 463 459 455 451 449 446 444 441 438 434 433 431 427 422 418 414 410 405 402 398 395 393 393 393 394 396 398 399 400 397 393 387 381 379 381 381 381 380 378 378 375 373 370 370 372 374 375 374 371 369 369 368 367 365 362 358 355 352 350 350 352 356 359 360 360 359 358 358 359 360 359 358 356 357 358 357 354 352 352 352 350 348 343 339 336 334 331 330 332 336 340 344 347 348 349 348 347 347 348 349 350 350 349 344 337 329 320 310 301 293 284 275 271 271 270 268 268 268 267 268 271 275 278 279 279 278 282 287 289 291 292 293 289 286 284 281 285 290 294 295 294 293 291 290 292 292 291 290 288 284 284 285 285 286 287 288 290 293 296 298 298 295 291 289 289 283 277 272 273 279 287 293 293 290 286 285 288 287 285 285 290 294 298 301 304 305 301 295 289 284 283 280 275 274 274 279 284 290 294 295 292 283 275 274 276 282 290 297 302 306 310 316 320 324 328 331 332 332 333 335 339 342 340 333 326 320 317 314 309 308 309 310 306 302 296 290 287 286 287 288 292 298 308 317 320 316 312 311 308 306 305 304 307 308 302 294 289 287 286 290 296 299 298 295 290 287 283 284 285 285 286 289 293 296 299 305 312 316 315 309 304 300 296 292 289 286 282 278 275 272 269 267 266 265 264 264 264 263 256 245 242 248 268 282 287 291 294 297 303 308 310 313 317 320 325 327 326 322 320 321 323 326 331 335 336 340 342 344 346 349 351 352 353 357 362 368 378 407 439 449 447 452 454 454 451 442 439 458 475 483 493 507 501 493 480 473 475 487 499 510 531 546 550 557 568 579 589 593 591 586 585 585 590 597 599 592 567 540 519 507 500 505 523 545 545 537 541 561 583 584 581 569 569 584 601 607 605 593 574 549 529 514 501 500 508 514 520 507 492 481 477 483 493 505 520 543 569 585 598 609 620 629 632 630 624 618 617 616 618 626 632 635 631 622 613 605 605 608 610 614 625 632 629 626 627 629 628 630 633 631 632 634 634 627 623 623 629 638 635 622 587 527 443 376 346 335 364 450 549 618 639 652 656 655 654 659 667 674 675 680 688 694 698 694 688 686 691 694 691 690 689 682 675 669 669 677 683 681 676 673 679 686 692 697 700 700 691 664 626 596 571 546 523 510 506 507 517 533 552 567 579 584 593 603 608 597 582 577 573 570 581 606 638 647 638 623 603 588 581 575 569 565 563 562 560 555 549 549 552 554 548 541 536 538 542 541 538 533 528 523 522 526 531 531 530 528 527 527 527 533 537 534 531 530 530 530 530 533 536 537 538 538 535 532 531 530 529 527 525 523 522 522 521 519 520 521 524 525 526 527 527 523 518 515 522 539 557 569 573 574 576 578 583 590 597 592 580 570 582 600 599 581 563 561 570 574 574 571 569 570 570 562 557 557 563 571 576 585 597 614 620 614 614 618 623 620 616 621 631 635 628 625 628 635 645 648 627 597 573 563 558 559 571 586 598 614 627 637 642 647 654 661 661 655 645 632 627 633 650 667 687 712 739 748 727 691 666 667 684 701 711 724 742 771 801 821 835 833 838 854 880 904 905 878 848 829 844 877 908 928 942 954
249 257 266 272 276 279 282 286 291 294 294 294 293 292 289 286 285 285 286 287 285 280 272 266 264 264 265 265 263 260 257 252 248 245 243 240 238 235 233 232 232 234 237 241 243 239 236 241 246 251 250 246 241 237 232 226 223 220 218 215 212 207 204 208 217 225 224 214 196 181 177 176 175 176 177 178 180 180 181 183 182 181 181 180 181 184 190 200 211 223 226 225 228 235 242 242 236 228 226 230 236 241 244 251 259 269 274 290 317 346 379 411 441 461 471 475 474 471 466 462 458 455 453 450 447 444 441 438 436 433 431 427 423 420 415 409 406 403 400 396 395 396 397 397 397 399 400 401 399 393 387 382 381 383 384 384 383 382 381 378 375 372 373 374 376 377 375 373 371 371 370 369 368 365 361 357 352 349 346 347 352 356 359 361 361 360 361 361 362 362 360 359 359 360 360 356 355 355 354 353 349 345 342 340 337 334 332 331 333 337 342 345 347 350 351 350 350 350 351 351 350 346 339 330 321 313 305 298 289 281 274 273 272 270 271 272 272 271 270 272 276 281 282 281 280 283 287 288 288 290 292 291 289 286 283 285 291 295 297 296 296 294 293 294 295 295 293 289 286 287 288 289 288 287 289 290 293 296 299 300 300 297 293 290 282 276 273 274 277 285 292 294 293 291 290 289 287 286 289 293 295 298 301 306 306 302 298 292 290 289 286 280 276 276 279 282 288 294 298 295 287 280 275 275 279 285 290 296 301 308 314 320 324 328 332 334 334 334 336 339 341 339 333 327 321 316 313 312 313 312 310 305 299 294 290 288 288 290 291 294 300 310 319 320 315 313 314 312 310 307 305 307 305 300 294 289 287 288 292 298 301 298 295 290 289 286 284 286 286 287 290 295 298 304 311 315 315 312 307 303 300 297 293 290 287 282 278 276 273 271 269 268 268 267 265 265 264 259 246 239 246 266 280 287 291 296 299 303 305 306 310 313 317 322 325 322 320 318 319 322 327 333 336 337 337 339 341 344 346 349 352 355 358 362 367 375 397 433 455 455 458 460 462 463 451 442 458 480 494 508 523 521 512 497 488 487 502 503 511 532 551 558 565 573 582 590 595 594 593 593 594 598 601 603 597 579 556 537 520 506 511 534 558 567 563 572 586 588 584 582 575 579 594 608 609 605 590 567 542 523 509 505 510 521 524 520 507 491 482 481 489 496 508 522 543 564 582 596 606 618 629 634 632 626 624 623 622 625 632 636 637 631 622 616 610 611 616 617 620 626 633 634 633 634 637 637 637 639 637 638 641 641 636 633 632 634 640 629 591 523 446 382 348 331 326 344 405 511 604 637 657 664 665 664 666 674 680 680 683 691 699 703 699 693 691 699 700 697 695 696 690 683 677 677 685 691 691 687 683 687 693 698 703 707 707 701 677 638 605 574 544 524 516 514 514 524 537 554 562 571 574 581 588 590 580 573 571 567 564 573 603 632 640 630 615 597 582 575 570 565 562 558 556 554 548 542 544 548 550 543 536 531 533 538 538 535 530 525 520 517 520 526 527 524 522 522 521 524 530 531 530 527 525 528 529 530 533 536 536 535 534 532 531 530 530 531 529 526 524 523 522 521 520 521 522 524 526 528 529 530 528 523 518 520 532 548 563 569 574 577 580 587 595 597 590 578 572 585 602 599 580 563 560 567 575 578 575 574 576 575 565 557 558 565 572 581 597 613 627 626 619 618 624 625 621 619 622 632 640 634 630 630 634 640 644 635 609 586 574 565 564 566 574 587 601 615 627 634 647 662 673 676 674 668 652 641 639 656 678 699 719 746 762 746 708 676 671 686 709 729 743 756 776 805 828 851 857 862 872 894 914 908 886 853 839 859 892 922 945 961 974
246 255 264 271 276 280 283 287 291 294 295 295 294 291 289 286 285 286 286 287 285 282 276 272 270 270 270 267 262 258 254 250 247 244 241 238 236 234 234 235 237 241 245 248 248 243 238 241 246 250 248 244 240 236 230 223 219 217 216 214 210 205 205 210 218 225 221 210 193 180 175 175 174 174 174 174 175 177 179 182 183 183 184 182 181 181 181 186 198 210 214 214 218 227 233 231 226 221 221 225 230 233 237 243 252 258 260 272 288 310 336 368 399 426 447 460 467 467 466 463 459 457 455 452 449 445 442 440 437 434 431 428 425 421 415 410 409 407 403 399 398 400 400 400 399 400 402 402 399 394 389 384 384 385 387 387 386 385 383 381 377 374 375 377 378 377 375 373 373 373 372 371 370 367 362 357 352 346 342 341 346 352 357 360 362 362 363 364 364 364 363 362 361 363 362 359 357 357 357 354 350 346 345 344 341 337 332 330 331 333 336 340 345 349 353 353 353 353 351 349 346 339 331 322 313 306 300 294 286 279 274 274 273 273 275 276 277 274 272 271 276 281 285 284 284 286 289 289 291 293 295 294 291 288 285 286 290 294 296 297 298 297 296 296 297 298 294 290 288 290 291 291 289 289 290 291 294 297 301 304 304 301 296 287 281 277 276 275 277 283 291 296 296 295 294 292 289 289 293 297 299 299 302 306 306 305 302 297 294 293 292 285 279 278 280 283 289 294 297 296 292 286 280 277 279 285 290 296 302 308 314 320 324 328 331 335 336 336 337 339 341 339 333 327 321 318 316 316 316 313 309 303 298 295 292 290 291 293 294 297 302 311 320 318 315 317 318 315 312 309 307 306 301 297 293 290 288 289 292 297 297 296 294 290 289 285 284 287 288 289 291 296 302 309 314 315 313 310 307 305 302 299 295 292 288 283 280 278 275 272 270 270 270 269 268 267 265 261 248 241 248 264 276 283 288 292 297 298 300 305 308 312 315 318 318 315 313 313 315 321 326 331 334 333 332 334 337 340 344 348 354 359 360 362 365 373 391 425 453 463 465 468 473 475 456 444 457 485 504 521 536 538 524 510 507 501 508 505 513 530 551 562 571 579 588 594 598 599 599 600 601 603 605 607 603 587 566 544 524 505 511 538 570 583 587 594 596 593 590 588 587 593 606 614 614 608 590 562 536 521 512 512 523 532 530 519 505 491 488 487 489 498 508 521 542 566 587 601 609 618 628 635 633 631 630 630 631 634 637 640 637 630 621 618 618 623 626 625 625 629 635 640 640 642 645 646 646 646 645 642 644 647 645 644 643 644 639 604 534 452 383 350 331 327 325 330 374 470 566 626 652 665 670 673 675 681 687 686 687 693 702 706 701 696 697 704 706 703 701 702 699 691 686 685 691 697 700 698 692 694 700 703 707 710 707 692 666 631 601 574 547 531 523 522 522 531 544 555 566 569 569 567 571 572 566 566 565 561 558 567 593 614 620 612 601 589 576 571 566 564 560 555 552 547 542 537 540 544 546 540 533 527 529 535 537 535 530 526 521 515 516 520 521 519 517 517 520 525 527 527 524 522 523 527 528 529 530 533 533 531 529 529 529 529 531 532 531 528 526 524 523 522 521 521 522 523 526 528 530 531 529 526 520 519 525 539 552 559 567 574 579 587 592 591 584 577 577 591 605 597 578 563 559 566 574 580 581 581 582 578 567 557 558 566 575 588 609 629 636 629 621 624 631 633 627 623 627 633 642 641 635 634 634 635 638 636 623 606 589 577 570 570 572 577 588 601 608 618 631 650 666 678 682 683 668 650 648 667 691 711 728 753 772 759 721 690 681 688 711 735 754 771 791 816 840 863 879 884 890 904 923 921 898 864 848 869 901 933 958 977 992
248 254 262 270 276 281 284 288 291 294 295 295 293 291 288 287 287 287 287 288 287 284 280 277 277 275 271 266 260 255 251 248 245 242 240 240 237 236 239 243 245 250 253 253 250 244 240 243 246 247 244 241 238 232 227 222 219 217 216 214 210 207 207 214 221 224 221 210 193 180 175 174 173 173 174 174 176 178 181 185 186 188 191 188 185 181 179 180 187 196 203 205 211 216 218 216 215 215 217 220 224 228 232 237 242 248 250 256 266 281 301 324 352 379 405 429 446 458 461 462 460 458 456 453 450 445 442 441 439 436 433 429 426 421 416 412 412 410 406 402 402 403 404 403 402 403 404 403 401 396 391 387 387 387 388 389 389 387 384 381 377 375 374 374 375 375 375 372 374 375 374 371 368 364 358 353 347 341 336 334 339 346 351 356 359 361 363 365 365 365 364 364 363 363 363 361 360 360 359 355 350 348 349 347 343 338 332 327 327 328 331 334 340 346 351 353 353 352 348 343 337 329 322 314 307 300 294 289 283 277 276 276 275 276 278 280 280 278 274 273 276 281 286 287 287 290 293 294 295 296 297 297 294 291 288 288 291 292 294 295 298 300 299 299 299 299 295 291 289 291 293 292 291 291 293 294 295 298 302 306 306 303 294 286 281 281 281 278 278 282 290 295 297 297 296 295 291 291 298 303 303 303 303 305 306 307 305 302 298 297 296 289 281 279 281 285 290 295 297 296 296 292 285 279 280 288 294 299 305 311 317 322 327 329 332 335 337 337 337 340 342 339 332 326 323 320 319 318 316 313 307 301 297 296 294 290 292 294 296 300 305 313 320 319 318 320 321 319 316 312 308 304 300 296 293 291 289 290 291 292 290 289 289 288 286 284 285 288 290 292 293 298 304 311 315 314 313 312 310 309 305 301 298 294 288 284 282 280 277 274 272 271 271 271 270 269 267 261 249 244 253 261 270 277 283 286 290 293 300 306 309 311 310 311 309 308 308 309 313 319 324 328 331 330 330 332 336 340 344 349 356 363 364 365 367 371 383 411 445 466 471 482 490 486 462 447 464 497 519 534 544 547 536 525 525 516 512 511 518 529 542 555 570 583 591 596 601 604 605 606 607 609 610 610 605 586 560 534 517 510 518 547 581 595 600 603 603 601 599 598 599 606 614 618 619 609 586 556 533 524 520 525 534 534 528 517 502 491 494 495 494 497 506 514 532 557 588 606 614 622 630 637 638 637 638 639 640 641 642 640 636 627 622 624 629 634 634 633 633 635 640 645 649 651 652 653 654 654 651 645 647 650 655 655 654 652 637 573 479 399 360 333 327 326 325 326 356 427 518 591 632 656 671 678 682 688 694 693 692 698 705 709 704 702 704 710 712 708 706 708 707 701 697 695 697 702 709 709 703 702 706 708 708 700 687 662 633 605 592 578 555 540 533 532 532 539 551 562 570 569 565 561 558 557 558 558 559 555 553 560 576 590 595 589 583 578 572 569 567 566 562 558 552 545 540 534 532 536 541 540 532 524 525 534 538 535 531 527 521 513 511 513 513 513 517 519 523 528 527 523 518 517 521 525 525 524 526 528 529 527 527 527 527 529 531 534 534 532 529 527 525 524 522 522 523 524 526 528 530 532 529 525 522 520 522 530 538 545 554 564 575 581 586 585 581 580 581 596 605 591 575 564 562 567 574 581 586 587 586 577 566 557 559 567 578 591 616 636 639 631 629 631 640 641 636 631 633 638 646 648 639 638 640 640 639 639 637 628 610 593 583 580 576 579 582 588 595 602 613 629 646 664 678 684 675 663 661 676 703 723 736 761 782 774 745 718 702 696 709 733 759 785 808 831 853 875 895 904 909 918 933 933 908 873 856 878 911 943 969 989 1009
252 253 259 268 276 281 285 288 290 293 295 295 293 290 289 288 289 289 289 289 288 287 284 282 280 277 272 266 260 254 250 246 243 242 241 242 240 242 247 251 253 255 256 253 249 244 242 244 246 244 241 239 234 229 225 222 220 218 217 216 213 210 212 218 224 225 221 210 195 181 175 174 173 174 174 177 179 181 185 188 193 195 198 194 189 185 181 179 182 187 193 199 203 206 206 208 210 212 214 216 219 223 227 232 237 240 242 247 252 262 278 295 310 331 357 383 409 430 442 453 454 455 454 451 447 443 440 438 436 433 430 426 423 418 415 414 414 412 409 406 404 405 406 406 405 405 405 405 402 398 393 389 388 388 388 388 387 383 379 374 370 367 366 366 367 367 368 368 370 370 369 365 360 354 348 342 337 333 328 326 330 336 341 346 351 354 357 360 361 361 361 360 359 359 360 359 358 358 356 352 349 349 349 346 341 334 327 322 322 322 324 328 333 339 345 348 347 344 340 335 329 322 315 309 302 296 291 286 281 278 279 280 280 278 279 281 283 281 277 275 276 281 286 288 289 291 295 298 298 299 300 301 298 294 292 290 290 290 291 292 295 299 302 302 302 301 297 292 290 292 293 294 293 294 295 296 297 300 303 307 307 301 292 286 285 287 286 282 279 281 288 294 297 298 297 296 292 294 299 304 307 308 306 306 307 307 308 304 302 301 299 292 284 279 281 287 293 297 298 298 298 296 288 279 280 288 297 302 307 313 318 325 328 332 334 336 337 338 338 341 343 340 333 328 325 322 319 318 315 310 304 300 299 297 293 290 292 296 299 302 307 316 321 321 320 321 323 322 320 315 310 305 301 297 295 293 290 290 288 286 285 285 285 285 284 284 286 289 293 294 295 300 307 314 318 319 318 317 314 311 307 304 300 294 289 287 285 283 279 277 274 273 273 272 271 270 268 260 248 248 255 262 266 274 281 284 287 291 299 306 310 308 304 302 301 301 303 307 313 318 321 325 327 327 328 331 336 340 344 350 358 366 369 370 371 371 376 401 441 467 480 495 508 496 466 454 473 509 532 541 550 554 545 541 539 528 521 521 531 537 538 546 561 581 595 601 605 608 611 612 613 614 614 614 606 580 545 525 524 524 539 565 592 605 608 612 612 611 609 608 611 616 620 621 615 603 575 546 533 531 535 540 538 533 524 513 499 494 501 506 503 501 502 508 520 548 581 603 614 624 632 639 642 643 644 646 648 647 645 640 637 632 628 631 637 643 644 642 641 643 646 649 654 657 659 660 661 661 656 650 649 653 658 663 663 659 618 522 429 365 340 327 326 326 327 327 342 394 464 542 603 642 665 680 690 697 701 700 700 704 711 714 710 708 711 717 717 713 710 712 713 712 708 704 702 707 714 719 714 710 710 707 695 674 648 621 599 584 580 577 566 552 545 542 543 548 558 564 568 565 559 553 552 552 554 554 553 548 548 552 556 565 573 572 572 570 569 568 567 567 565 560 554 550 544 536 531 531 535 536 530 520 521 532 537 535 531 527 521 512 507 506 507 512 519 525 528 528 524 519 515 515 518 521 522 519 520 524 524 523 524 526 527 528 531 535 536 535 532 530 527 526 524 524 526 526 526 528 530 531 531 527 525 522 523 525 530 536 544 554 567 576 584 583 586 586 587 596 595 583 570 565 567 573 576 581 587 592 586 574 563 559 560 569 581 592 614 633 642 638 636 643 651 650 645 643 642 645 653 652 642 641 644 642 640 639 643 645 634 617 602 594 586 582 585 588 590 594 601 610 624 643 663 677 683 686 687 699 721 734 745 767 793 799 774 752 736 720 715 732 756 787 814 838 860 882 903 923 929 935 943 946 919 882 863 884 911 941 967 992 1015
256 254 257 265 274 279 284 287 290 292 294 294 292 291 290 290 290 290 290 290 289 288 286 283 280 277 273 267 262 255 250 246 244 243 243 245 247 249 254 256 256 255 254 250 246 244 244 245 244 242 240 238 232 228 226 224 221 218 218 218 215 215 218 223 228 226 222 213 198 183 176 175 174 175 176 179 182 185 188 193 199 203 205 200 194 189 185 180 179 183 187 193 198 202 203 206 212 213 214 216 219 222 225 228 233 234 235 238 243 249 261 274 283 297 313 335 361 386 406 421 428 433 434 433 430 426 422 419 416 413 410 406 405 403 402 404 406 405 403 401 402 403 403 403 402 402 400 399 395 391 387 383 384 380 378 376 372 366 361 356 352 350 349 351 352 354 355 356 358 358 356 352 346 338 330 325 321 318 317 316 318 324 329 334 338 342 346 350 350 349 349 347 346 349 350 349 348 347 346 344 342 342 341 338 333 326 319 317 317 318 319 321 325 331 335 337 338 335 331 326 321 317 311 305 299 295 289 284 281 280 283 285 284 280 280 282 285 285 282 279 279 282 286 291 291 293 296 299 302 302 303 304 302 299 297 294 292 291 291 291 293 297 301 303 305 304 299 295 293 294 296 297 296 296 297 299 300 301 305 308 306 300 292 289 290 293 290 285 281 281 286 293 297 299 299 297 294 294 298 303 309 311 310 309 309 309 310 308 306 305 301 293 284 279 282 289 296 301 302 302 301 297 288 279 279 288 296 301 306 311 318 325 330 334 337 338 338 338 339 342 344 342 336 330 326 321 318 316 313 309 304 300 299 296 292 291 294 299 302 303 309 317 322 324 322 322 323 325 322 317 312 307 303 300 297 295 292 290 287 285 283 283 283 284 284 287 290 293 295 295 297 302 310 319 324 325 325 322 318 313 309 306 300 294 290 289 287 285 281 279 277 276 274 273 272 271 268 260 250 251 258 263 263 270 276 282 288 292 299 306 305 301 298 297 297 299 302 307 313 316 318 320 322 324 327 331 335 339 344 351 360 370 374 375 375 373 374 395 431 458 486 502 514 495 467 461 485 516 540 549 557 562 556 548 543 536 531 535 544 552 550 545 558 581 598 605 609 611 614 616 617 617 618 617 605 575 539 525 528 545 566 589 607 613 616 618 618 620 620 619 621 621 623 618 605 590 566 548 543 548 550 545 534 525 517 509 498 498 511 520 518 512 504 504 514 537 567 588 606 622 633 638 643 646 649 652 653 650 647 645 645 641 635 634 640 649 652 651 650 651 653 654 659 664 665 666 669 668 662 657 655 658 663 667 670 663 602 485 394 347 329 326 324 323 323 324 337 378 428 499 567 619 652 673 694 706 707 708 708 710 716 719 715 714 718 724 721 717 716 718 720 719 716 712 711 714 722 725 722 715 708 692 661 634 609 588 570 563 567 572 568 561 554 550 552 552 554 558 562 562 556 550 548 548 550 550 547 542 541 544 549 554 560 561 561 564 565 564 566 568 567 563 557 554 549 539 533 529 528 527 522 515 517 530 537 535 529 523 518 509 505 503 506 512 519 525 526 524 521 516 515 516 516 518 518 516 516 518 519 520 523 526 527 529 532 536 538 538 535 533 531 529 527 527 528 529 528 528 529 531 532 530 527 526 526 527 530 538 544 551 564 576 584 586 589 591 589 591 583 573 569 566 571 578 581 583 590 594 583 571 563 563 564 571 581 593 609 627 642 645 646 655 663 662 657 658 655 655 659 654 644 643 648 646 641 640 644 650 650 639 624 610 595 588 588 591 593 595 597 603 615 632 649 670 693 708 720 730 745 753 757 773 801 818 807 788 774 754 735 737 754 783 806 828 852 878 906 929 939 954 963 956 921 883 868 880 902 925 947 974 1001
258 254 257 263 270 277 282 285 288 290 292 292 293 292 292 291 291 291 291 291 291 289 287 283 280 276 272 268 263 257 252 248 246 246 248 252 255 258 260 259 257 254 250 247 245 246 247 245 243 241 239 237 233 230 228 225 222 219 220 220 220 221 225 231 232 229 223 214 200 186 178 176 175 176 178 181 185 188 193 199 205 210 210 206 199 194 189 185 181 181 184 192 201 205 208 211 215 217 218 219 220 222 224 227 230 230 229 230 234 241 248 255 264 273 284 298 319 340 358 371 379 387 390 392 391 387 383 379 376 373 369 365 365 365 369 374 379 381 382 383 385 387 389 390 389 388 386 382 378 374 371 368 363 357 352 349 346 341 336 332 328 326 328 331 333 336 338 340 341 341 339 334 326 318 312 309 306 305 305 305 307 313 317 320 324 328 332 334 334 333 332 332 333 334 335 333 332 332 332 330 329 329 327 325 322 318 313 312 312 313 314 314 317 322 325 328 329 327 324 320 315 311 306 302 297 292 288 282 280 282 285 288 286 282 281 284 288 289 287 285 281 282 287 292 293 295 297 299 302 304 306 307 306 304 301 297 294 293 292 291 292 295 300 304 307 308 303 298 296 297 299 300 299 299 299 300 302 303 305 307 303 297 292 292 295 297 293 288 283 283 285 291 296 300 300 299 297 298 299 302 307 312 313 313 311 311 312 311 310 308 301 291 283 279 282 289 298 304 305 304 302 298 288 279 277 283 291 297 302 308 314 321 328 335 340 341 341 340 340 342 345 344 340 333 327 320 317 315 312 307 303 301 299 295 292 290 296 302 305 305 310 317 324 326 326 323 324 328 325 320 315 310 306 302 300 296 293 291 289 286 284 283 283 286 288 291 294 299 299 297 299 304 313 323 331 333 330 326 320 314 309 304 298 293 289 288 287 285 284 282 280 278 276 275 273 272 269 262 252 254 260 263 262 264 271 277 284 291 297 302 298 293 293 296 300 303 306 310 312 314 314 316 319 323 327 332 336 340 345 353 363 373 379 380 378 376 375 386 413 440 473 503 510 491 466 468 490 519 544 556 564 568 565 556 552 549 547 550 558 567 564 553 560 580 598 608 612 614 617 619 621 620 620 618 604 573 539 525 540 564 587 605 617 621 623 623 622 624 626 627 626 626 620 609 593 583 574 564 561 563 557 544 530 520 512 504 499 506 520 532 532 522 511 505 514 527 547 569 592 613 624 631 636 641 647 652 654 653 653 654 654 648 639 636 645 655 660 660 658 659 659 659 664 669 671 672 676 675 670 665 660 663 667 672 675 661 578 455 370 334 324 323 322 321 320 322 337 360 403 460 524 581 625 657 691 712 717 717 716 716 721 724 721 720 724 730 726 721 722 725 727 725 722 720 720 718 719 722 713 703 684 654 624 598 580 563 551 548 554 562 564 560 553 548 545 544 543 547 555 558 554 547 543 543 545 545 541 537 535 537 542 547 550 551 554 558 560 561 565 569 570 565 561 557 549 544 542 535 525 520 516 510 512 526 537 534 527 519 511 505 503 504 506 513 519 522 520 518 515 514 517 518 517 518 518 517 517 517 517 518 522 527 529 531 534 537 539 540 539 537 535 532 530 529 529 530 531 530 530 530 532 531 530 531 530 531 535 545 549 553 565 578 585 589 593 595 592 585 577 573 571 569 571 578 584 587 593 595 585 573 566 566 567 573 581 591 607 622 636 644 651 665 675 672 671 674 670 668 664 655 645 647 653 653 644 644 649 656 658 654 641 623 605 597 594 595 596 598 601 606 616 630 642 665 693 719 736 752 765 768 768 781 808 831 835 823 810 790 769 754 762 774 794 816 841 867 898 928 954 972 980 959 919 884 878 884 896 910 927 948 973
259 255 256 261 267 274 278 281 283 285 287 289 293 294 294 292 291 292 293 292 291 290 286 283 278 274 271 268 263 259 254 251 251 251 254 259 263 264 263 259 256 251 247 244 245 248 247 245 244 242 240 237 233 230 228 225 222 220 221 222 223 229 233 237 235 228 221 214 203 191 182 179 179 179 180 182 185 187 196 203 208 213 213 211 204 199 195 190 184 180 180 188 200 209 212 215 217 219 220 221 222 224 225 227 227 225 225 225 228 233 239 244 250 256 265 274 286 301 313 320 325 331 335 339 340 339 336 332 328 325 320 312 311 309 314 322 330 337 341 347 351 354 358 360 358 357 351 348 344 342 339 335 330 326 324 322 321 319 315 311 308 308 311 313 316 319 322 323 323 323 322 316 309 302 298 297 295 296 297 298 298 303 307 310 312 315 317 318 317 316 317 318 318 318 318 317 317 317 317 316 316 316 315 314 314 311 308 308 308 307 307 308 311 315 319 320 322 320 318 314 310 306 302 298 294 290 286 281 280 282 284 287 287 284 283 287 291 292 292 289 284 284 287 291 294 296 298 300 303 305 307 308 309 308 306 302 299 296 294 293 292 295 299 304 308 309 306 302 300 299 301 302 303 301 299 301 303 304 305 306 302 297 295 297 298 299 296 291 288 287 286 289 295 301 302 302 301 301 301 301 305 310 315 316 315 314 314 315 313 309 298 288 282 281 284 290 298 306 308 307 304 300 293 282 276 279 284 290 296 302 309 316 324 334 340 343 343 343 342 344 346 345 341 333 326 321 319 317 312 307 304 304 301 298 294 293 298 305 307 307 312 319 326 329 329 326 327 329 326 322 318 314 310 306 303 299 295 293 291 289 285 283 283 289 293 297 300 303 302 300 302 307 316 329 337 339 335 328 320 313 308 302 297 292 288 288 288 288 287 285 283 280 278 276 275 273 270 263 255 256 262 263 262 264 267 272 279 286 292 294 290 289 293 297 305 312 312 311 311 311 312 315 318 322 328 333 338 342 348 354 365 376 384 389 388 386 379 379 395 420 450 479 491 482 472 477 492 513 537 556 568 576 570 563 562 564 562 560 567 575 576 564 564 578 594 608 614 618 620 623 624 622 620 615 599 572 541 527 540 568 595 614 623 626 628 628 627 629 629 628 627 623 617 605 593 589 585 579 574 566 553 541 530 520 513 508 506 516 530 540 536 526 515 509 515 522 534 551 573 593 602 612 622 632 640 645 650 656 658 661 658 651 643 640 646 657 664 666 665 666 666 665 667 673 676 678 681 681 677 671 666 668 671 676 675 648 547 418 354 329 322 319 318 318 318 321 331 349 381 422 475 527 577 627 674 706 720 722 720 721 725 729 728 727 729 734 731 726 726 730 732 730 727 723 717 710 704 696 682 663 636 611 590 573 559 548 539 537 541 548 551 551 543 538 535 532 533 540 548 552 551 544 540 537 538 538 535 531 531 533 535 539 542 544 549 553 557 559 564 569 571 568 564 560 552 550 552 544 530 522 514 508 513 522 532 531 521 511 505 504 508 508 508 512 513 514 513 513 514 515 520 521 521 521 522 522 520 519 518 518 522 528 532 534 535 538 540 541 541 539 538 536 534 532 531 532 532 532 531 531 531 531 532 534 535 536 539 549 554 558 570 582 587 592 597 598 591 582 577 575 574 571 572 577 584 590 597 598 590 576 569 567 569 573 580 587 600 612 625 639 652 672 683 681 684 689 684 679 667 656 647 650 659 660 652 655 659 659 660 660 651 633 620 611 606 603 604 607 609 608 617 629 639 654 682 705 730 750 768 777 783 796 819 841 854 853 848 832 808 788 787 785 792 809 834 860 892 925 957 983 984 952 913 891 894 898 905 916 925 935 949
258 259 260 261 266 270 274 276 277 279 283 288 293 295 294 293 292 292 293 293 292 290 287 281 276 272 270 267 263 259 257 255 256 257 259 263 266 264 262 258 253 249 244 245 247 249 247 245 244 242 240 236 232 230 227 224 224 221 221 223 227 233 239 241 233 224 215 211 206 194 186 183 183 184 185 184 183 187 197 206 211 214 217 214 209 205 201 196 189 183 180 185 195 205 211 216 218 220 221 221 222 223 224 224 223 222 221 221 223 226 232 237 242 247 251 259 268 277 282 284 284 286 288 290 290 290 290 285 282 278 271 262 254 251 255 265 274 285 298 305 310 315 320 322 321 318 315 313 311 310 309 306 304 303 303 302 302 303 301 298 296 297 299 299 303 308 312 312 311 312 311 306 300 293 290 289 288 289 291 292 292 294 298 301 303 304 307 306 305 305 305 306 307 306 305 305 305 307 307 306 307 307 307 306 306 305 304 304 304 303 303 304 307 310 312 314 316 314 311 309 305 302 298 294 291 287 283 282 281 283 285 286 287 285 287 290 293 295 295 292 287 285 285 289 292 293 295 299 301 303 305 307 309 310 309 307 305 301 297 296 295 296 300 305 309 310 308 305 302 301 303 305 305 301 300 302 304 305 306 305 303 301 299 300 301 301 298 295 293 290 287 288 294 301 304 304 304 304 304 303 306 309 313 316 317 317 317 318 315 307 295 286 283 283 284 289 299 307 311 310 306 302 297 287 278 278 282 286 292 298 305 312 320 329 337 342 344 345 345 345 347 346 340 332 327 323 321 318 312 307 307 307 305 302 298 296 300 306 310 311 314 321 327 332 333 329 328 329 327 325 322 317 313 309 305 301 297 295 293 291 287 284 283 288 295 302 305 307 305 302 305 310 319 334 343 342 336 327 319 313 306 300 295 290 289 290 291 291 290 288 286 283 280 278 277 275 272 264 257 257 263 265 265 265 266 270 275 281 284 286 286 289 294 299 310 320 318 313 312 312 314 316 320 325 330 336 340 344 350 356 366 378 389 397 397 392 384 379 389 402 427 457 490 487 485 486 493 505 526 546 566 578 576 570 572 575 575 572 573 580 584 574 565 569 584 602 615 620 623 626 627 625 621 607 590 571 542 528 540 570 600 621 627 631 632 632 633 634 631 629 627 625 622 613 602 596 588 577 567 558 547 534 528 526 521 516 520 527 540 541 533 522 515 517 521 526 531 539 554 570 579 593 606 618 628 636 646 654 661 664 660 654 648 645 648 656 664 668 670 672 673 673 673 676 680 684 686 687 682 677 672 674 677 679 656 603 490 391 342 326 320 318 318 318 318 318 324 337 361 390 429 470 516 570 625 673 705 719 722 725 729 732 734 734 736 739 736 731 727 728 726 720 711 701 687 670 655 638 624 603 581 570 564 554 544 534 528 526 528 532 533 536 532 528 526 525 525 530 537 544 547 542 537 531 531 531 530 526 527 529 531 535 538 541 546 550 553 556 562 568 572 571 568 562 555 557 559 550 538 533 524 509 509 516 518 521 515 506 504 510 514 513 513 511 512 512 512 514 516 518 522 524 524 525 526 525 524 522 520 520 523 528 533 535 535 536 539 542 543 542 541 540 538 535 534 534 534 533 532 532 533 532 532 534 537 540 543 550 557 561 574 584 590 594 599 596 587 582 583 580 578 577 576 578 584 592 599 599 591 578 572 570 571 574 578 585 594 604 615 630 649 671 684 687 694 700 695 683 671 660 651 655 663 668 661 663 667 663 659 657 655 649 642 634 624 618 620 621 617 613 617 628 635 644 664 682 708 734 756 776 792 808 829 847 863 868 871 863 844 821 812 808 807 816 839 866 896 927 959 987 982 945 912 906 918 929 938 946 948 946 949
261 265 266 267 267 270 270 272 273 276 280 285 290 293 294 293 292 293 294 293 292 291 286 281 275 272 269 266 262 260 258 259 260 261 262 264 264 263 260 255 251 247 246 247 249 249 247 245 244 241 237 233 231 229 227 227 226 223 222 225 230 236 240 238 230 218 212 211 207 197 190 187 189 192 192 186 182 186 197 207 213 217 220 216 212 211 209 204 197 189 184 184 188 196 204 210 214 216 217 217 216 213 214 216 216 217 216 215 217 219 224 229 233 238 242 246 253 259 262 262 255 254 253 254 251 248 246 242 237 233 226 219 213 210 213 220 229 241 255 265 274 280 286 289 289 289 288 290 290 289 289 288 287 287 288 290 292 291 290 289 288 290 292 291 294 299 303 303 303 303 303 300 294 288 284 283 282 283 285 287 287 289 291 293 296 297 298 298 297 297 296 298 299 297 296 296 297 299 299 299 301 302 301 299 299 299 300 300 300 299 299 301 304 306 308 310 311 309 307 304 301 298 294 291 288 286 284 283 284 287 287 286 286 286 288 292 295 297 296 294 290 286 285 286 289 289 292 295 297 299 302 304 307 310 311 311 310 306 302 300 299 298 300 305 310 311 310 308 305 303 305 308 305 301 301 303 305 307 307 308 308 306 304 303 303 303 301 299 296 293 289 289 294 300 304 306 307 307 307 308 308 308 311 314 317 321 322 321 317 305 293 286 285 285 287 291 299 308 313 313 309 305 301 290 281 281 284 289 290 296 302 307 315 324 331 338 342 345 347 347 348 346 340 333 328 324 322 317 311 309 311 312 310 307 301 297 300 306 311 313 314 321 328 334 336 333 330 329 329 327 324 320 315 311 308 303 299 298 295 293 289 286 285 289 295 302 308 310 307 305 307 313 324 339 344 339 332 325 317 310 304 297 293 291 292 293 293 292 291 289 287 286 283 281 279 277 273 267 259 259 267 269 268 268 268 272 275 278 280 282 285 289 293 301 314 323 322 317 314 315 316 320 324 330 335 339 343 347 352 359 367 379 392 403 406 398 389 386 394 400 414 443 483 503 501 495 501 506 517 534 555 573 578 577 580 584 584 578 579 587 592 582 567 563 574 592 611 621 625 627 630 627 616 598 580 562 544 535 546 574 604 626 631 635 637 637 638 636 634 631 630 632 630 622 610 593 579 566 555 547 538 534 532 532 529 528 536 540 547 540 528 521 524 529 534 537 536 535 541 552 564 580 593 606 618 628 638 648 656 660 661 661 656 652 652 655 661 666 670 675 678 680 680 681 684 688 691 692 687 681 676 677 681 662 607 521 425 361 331 322 319 318 318 318 318 318 321 329 345 368 396 429 466 512 566 619 665 696 716 725 732 736 739 738 738 737 730 718 707 699 690 677 664 649 630 610 592 577 563 551 539 536 539 540 531 524 520 517 515 513 514 521 524 523 522 521 521 523 528 535 541 539 534 528 524 524 523 521 522 525 528 532 537 541 545 548 552 557 562 567 571 574 572 568 562 563 564 557 551 546 532 513 501 502 504 506 506 504 511 518 519 518 520 518 515 515 516 519 522 522 523 525 526 528 529 529 527 524 523 522 524 528 531 531 531 533 536 541 544 544 544 543 541 539 537 536 535 535 533 534 535 534 532 533 537 542 545 549 556 564 576 586 592 597 599 593 586 585 588 586 584 584 582 581 585 592 600 599 590 579 574 573 574 577 581 586 593 600 609 621 640 662 680 691 700 706 700 689 676 664 657 663 672 677 669 671 675 666 657 656 656 659 661 655 645 639 639 637 625 618 618 625 629 634 645 664 687 713 737 759 779 797 817 833 840 851 863 877 878 857 847 836 829 833 850 874 904 934 966 990 979 943 920 930 951 964 973 981 982 976 967
266 271 273 274 274 274 272 270 271 273 277 282 286 290 293 293 294 294 293 291 289 287 282 277 274 271 268 265 262 261 260 260 261 263 263 264 263 260 256 252 249 248 248 249 250 249 248 246 243 240 235 232 230 229 230 230 227 224 224 228 232 237 239 235 226 214 206 209 206 200 194 192 193 195 194 188 182 183 192 204 216 222 223 218 216 218 218 212 205 198 190 185 184 189 196 201 204 207 208 206 203 198 199 203 204 204 205 205 207 210 215 220 224 229 231 232 236 241 244 240 234 229 226 224 221 217 213 209 206 203 200 197 197 196 197 198 201 209 223 237 248 257 263 267 268 270 273 275 277 277 277 276 276 277 278 281 284 283 282 282 282 284 285 284 287 293 296 295 295 295 295 294 290 284 280 277 276 278 280 282 284 285 286 289 292 291 292 291 291 291 290 291 291 290 288 288 290 292 293 293 294 296 295 293 292 295 297 297 295 295 296 298 300 302 304 305 305 304 303 300 297 294 291 289 288 287 287 286 288 291 290 289 288 288 289 292 294 296 297 295 292 288 285 285 286 287 289 291 294 296 298 301 305 308 311 312 314 310 306 303 302 300 300 305 310 312 312 311 308 306 308 308 305 303 304 306 309 310 311 312 312 310 308 307 308 307 305 302 299 295 291 292 294 299 304 308 309 310 312 313 312 310 310 314 319 324 326 324 317 304 293 288 288 288 291 293 299 308 315 315 312 310 303 292 283 285 292 294 293 294 297 303 311 319 326 331 337 342 345 348 349 347 341 336 330 325 322 316 312 314 317 316 313 308 302 296 297 303 309 313 315 320 328 335 338 336 332 332 332 329 325 321 317 313 310 305 302 300 298 294 290 288 289 292 295 302 309 311 310 307 310 317 330 339 338 329 323 317 312 307 301 295 293 294 295 294 293 292 292 290 289 286 284 282 280 278 274 267 259 262 270 272 272 270 271 274 277 280 282 285 286 290 294 302 313 320 321 318 316 316 318 322 327 334 339 343 347 352 357 364 371 381 396 406 410 403 396 393 397 397 410 435 487 516 516 510 518 522 525 531 545 563 579 584 587 591 593 587 586 594 600 589 572 562 570 589 608 623 627 631 634 630 617 600 584 566 545 538 557 587 614 630 635 639 641 642 642 639 636 636 637 639 635 624 606 586 569 557 550 543 539 539 541 538 536 541 550 553 549 535 526 528 538 543 547 548 544 539 540 549 559 572 586 599 610 619 629 638 646 652 658 666 665 660 657 658 660 665 670 675 679 683 686 687 689 693 697 698 692 686 679 678 666 603 520 441 375 340 325 320 318 318 318 318 318 318 319 324 332 347 369 398 432 469 511 560 607 652 681 719 734 737 738 731 721 710 693 672 651 634 623 612 601 586 569 551 538 524 517 509 507 510 520 525 519 516 512 508 502 498 502 509 515 518 518 518 518 521 526 533 539 542 539 532 521 517 517 515 517 522 528 535 539 543 545 549 553 557 562 568 573 578 577 573 568 567 566 564 562 557 543 522 500 495 498 500 502 506 516 523 523 524 527 525 522 522 525 528 529 528 526 525 527 530 534 534 531 528 526 525 527 528 528 528 528 531 535 540 543 545 546 546 544 542 540 539 538 535 534 536 538 536 534 534 536 541 545 549 555 563 575 586 593 598 599 592 586 586 590 591 592 591 586 584 587 594 600 597 589 580 575 575 575 579 584 590 596 604 613 620 632 651 671 687 698 704 701 694 682 671 669 677 684 686 677 679 680 668 659 657 658 663 669 665 658 657 655 646 631 623 620 624 629 634 639 654 668 692 716 735 749 762 779 795 806 824 847 869 887 892 880 867 860 858 866 885 919 954 986 1004 984 947 932 951 978 995 1006 1013 1014 1007 996
271 276 280 282 283 282 277 273 270 271 275 278 282 286 289 293 294 293 289 284 280 279 276 274 271 268 265 263 263 262 262 262 263 263 262 262 260 256 252 248 248 251 251 251 250 250 249 246 242 238 235 233 231 231 231 230 227 225 227 231 236 239 238 232 221 210 202 203 202 197 194 192 190 191 191 186 181 182 187 201 215 223 224 218 221 227 228 224 216 208 199 191 186 184 188 190 192 195 197 193 190 189 189 191 192 193 193 194 196 200 205 210 215 219 220 219 220 222 224 220 214 209 206 203 199 196 193 192 191 192 196 199 200 200 197 194 193 195 204 218 231 242 249 253 255 259 262 265 267 267 268 268 269 271 272 276 277 276 275 276 277 279 280 280 282 287 290 289 288 288 289 288 286 281 278 274 272 274 277 279 281 282 283 285 287 286 286 286 286 285 285 285 284 283 282 282 283 287 288 288 290 292 290 288 289 291 294 293 292 291 292 294 296 298 300 301 300 300 301 299 296 293 290 289 290 291 291 290 292 293 294 293 292 291 291 292 293 295 296 296 292 288 286 287 288 289 289 292 294 296 298 300 304 309 312 314 316 314 309 307 305 304 303 306 311 314 314 314 311 309 310 308 305 305 308 310 312 315 315 316 316 315 313 313 313 311 309 306 301 297 293 296 298 298 303 309 312 314 316 317 314 312 312 315 321 326 329 326 317 304 295 290 290 291 294 296 300 308 314 316 315 312 306 294 285 290 297 299 297 294 296 300 308 316 322 326 331 336 341 347 349 348 344 339 334 328 322 317 314 316 320 316 312 306 299 295 296 301 306 310 314 320 327 335 339 338 334 333 334 331 327 323 319 315 310 307 305 303 300 296 293 291 294 297 297 301 308 313 311 310 314 323 333 335 330 320 314 310 306 302 299 295 296 297 296 294 293 294 293 291 289 287 284 282 279 278 275 267 260 266 275 276 275 272 273 276 279 282 285 286 287 291 295 299 306 313 317 317 318 317 319 323 329 335 340 346 351 356 362 369 377 388 402 411 414 408 406 404 400 396 406 435 491 528 530 525 535 543 543 541 544 556 573 584 594 600 602 599 595 601 605 597 580 567 570 587 606 623 631 635 638 634 621 603 588 570 547 545 570 601 625 638 641 643 645 646 644 642 641 642 642 640 630 614 596 577 567 560 553 546 543 549 553 548 544 552 560 557 546 532 530 538 549 556 558 554 550 546 548 553 560 569 579 591 598 608 618 628 636 645 657 667 669 667 665 666 666 668 673 679 681 685 690 693 693 697 701 704 698 691 681 670 616 521 441 384 347 329 321 319 318 318 318 318 318 318 318 320 324 332 347 369 400 434 474 516 559 603 647 686 712 720 716 699 676 652 628 606 584 567 556 549 542 533 517 504 491 484 480 481 483 494 505 511 513 509 504 497 491 490 495 502 508 514 515 515 515 520 528 536 543 548 548 537 522 513 511 512 519 526 534 540 540 543 545 549 554 558 564 571 577 581 577 572 567 563 562 561 560 560 550 529 505 493 498 502 508 514 521 528 529 531 536 534 529 530 534 536 536 533 531 528 529 533 538 537 534 532 530 530 531 531 530 529 531 534 538 540 543 545 547 547 546 545 543 542 541 537 536 538 539 538 537 536 536 540 544 549 554 560 570 582 592 598 600 594 590 589 594 597 599 597 589 586 591 597 602 596 589 581 577 577 576 578 586 593 601 609 618 623 633 643 659 674 686 695 699 694 686 681 683 690 695 691 684 685 684 672 662 660 660 664 670 671 670 670 666 652 637 628 625 628 632 636 639 645 658 672 688 702 715 722 736 755 775 801 829 865 896 909 905 894 892 891 895 905 936 975 1007 1018 991 957 947 972 1000 1019 1031 1039 1043 1037 1024
277 282 285 287 289 288 283 276 271 271 274 277 280 284 288 292 293 289 283 276 273 271 270 269 268 266 264 264 264 265 265 264 263 262 261 258 255 252 248 246 248 252 252 251 250 249 248 245 241 239 237 235 232 232 231 229 227 225 229 235 239 238 236 228 217 205 198 197 194 192 189 187 185 185 185 182 181 181 186 199 215 222 221 220 226 233 237 232 221 212 206 199 192 187 184 184 183 184 186 185 186 187 189 190 190 190 189 188 191 192 195 200 204 207 207 205 203 205 205 202 197 194 193 190 189 187 188 188 190 198 204 207 208 207 203 199 194 191 194 206 218 229 236 242 247 250 253 256 259 260 260 261 263 265 267 270 271 269 269 271 273 275 274 273 277 282 285 284 282 282 282 282 281 278 275 271 269 271 274 277 278 278 280 282 282 281 281 281 281 281 280 279 278 277 277 276 278 282 283 283 286 288 286 285 285 289 292 289 288 288 289 291 292 294 296 296 298 299 301 299 298 294 292 292 294 295 295 295 294 295 298 297 296 295 294 293 293 294 295 295 292 290 290 291 292 292 293 295 298 301 302 302 304 310 314 316 317 316 313 310 309 307 305 308 312 315 317 317 314 313 313 309 307 308 312 315 317 319 320 320 320 320 318 318 318 315 311 308 302 297 296 301 300 299 304 310 314 317 319 320 317 315 313 315 321 327 331 329 318 305 297 293 293 294 297 299 302 308 314 316 315 313 308 295 286 293 301 304 302 299 300 303 306 313 319 323 327 331 336 342 348 349 347 342 337 330 323 318 317 319 319 314 308 302 297 296 298 301 306 310 316 321 328 334 339 340 336 334 334 333 329 324 319 314 310 310 308 306 302 298 296 296 298 300 298 301 307 312 314 314 317 325 331 331 323 314 309 305 302 299 297 298 299 299 296 294 294 294 292 290 288 286 283 280 280 280 276 267 262 274 281 283 281 278 276 276 279 282 284 286 288 290 293 297 301 305 310 317 319 320 322 326 330 336 342 348 354 361 367 375 384 396 412 422 420 414 419 419 411 402 409 438 495 534 539 542 552 558 561 557 552 557 568 583 599 606 611 609 604 604 609 602 586 578 577 584 602 619 631 639 641 638 625 607 591 570 549 553 581 609 634 644 646 648 650 649 647 645 644 643 639 631 618 601 586 578 576 566 558 551 551 558 561 556 552 559 561 554 541 532 535 548 561 567 567 559 554 557 562 565 567 571 577 583 590 600 612 623 632 643 654 666 672 673 673 674 674 674 679 684 685 686 692 696 698 702 706 709 704 696 672 620 527 436 378 344 330 323 320 318 318 318 318 318 318 318 318 318 319 323 331 348 376 403 440 481 523 556 597 633 662 672 656 631 608 585 563 542 525 510 502 498 494 489 481 471 462 457 454 456 465 479 494 504 511 506 497 486 482 483 489 496 505 511 509 512 514 522 530 538 546 553 555 542 526 513 507 515 524 532 539 541 539 541 546 551 556 561 567 574 580 580 573 566 557 551 550 548 549 555 549 529 502 492 507 514 520 522 528 538 540 540 543 539 535 536 541 544 544 541 537 530 529 534 540 541 538 536 535 534 535 535 533 533 537 541 543 542 543 546 546 547 548 548 547 545 543 539 538 539 540 539 540 540 538 538 542 547 552 557 564 576 592 601 603 598 593 593 598 602 604 600 592 591 595 600 602 597 589 581 579 578 577 578 585 590 597 607 617 625 632 638 647 661 672 680 685 689 690 688 693 698 701 695 689 689 689 677 669 666 667 670 675 679 681 680 674 662 646 635 630 635 642 648 647 647 650 660 670 676 685 698 708 732 763 797 824 855 888 914 917 911 914 921 927 937 965 1000 1029 1034 1004 970 961 989 1019 1042 1055 1066 1072 1067 1050
283 285 288 290 293 292 287 280 273 272 273 276 279 282 286 289 288 283 277 273 269 267 266 266 266 265 265 266 267 267 267 265 263 261 258 255 252 249 246 247 249 252 252 251 249 247 245 244 241 241 240 237 235 232 230 228 226 228 232 237 238 235 231 224 213 201 194 190 188 186 184 183 184 183 181 180 180 180 186 202 219 222 222 224 231 238 241 235 223 215 213 208 202 195 189 185 183 183 185 188 192 192 196 199 200 199 197 195 191 189 188 190 193 196 195 193 192 191 190 190 189 190 189 189 188 187 189 193 200 207 213 214 216 213 208 203 198 194 190 195 207 217 225 234 240 243 245 249 251 253 254 256 257 259 262 264 265 265 265 267 269 270 269 270 272 277 279 278 276 276 277 277 276 274 271 267 267 269 273 275 275 275 277 279 279 278 277 277 277 276 275 273 273 272 271 271 273 277 279 279 282 284 282 281 283 287 290 287 285 286 287 288 290 292 294 295 297 299 301 301 300 297 294 296 299 300 300 297 296 297 300 299 298 298 297 297 296 295 295 295 295 294 294 295 295 295 297 299 301 304 306 306 305 310 315 318 318 318 315 314 313 309 307 309 312 316 319 320 319 318 315 312 310 311 314 319 322 324 324 324 324 324 322 321 321 318 314 309 301 297 299 304 303 300 304 310 316 319 321 321 320 317 315 316 321 325 328 328 317 309 302 297 297 297 299 302 306 310 315 316 316 314 309 297 287 290 299 305 304 303 306 308 310 313 317 322 325 327 330 336 343 347 347 344 338 331 323 320 321 322 319 313 307 301 298 298 301 304 308 312 317 323 331 336 339 342 339 336 334 333 330 324 318 313 312 312 311 308 304 301 300 301 302 302 301 301 305 313 316 317 320 325 329 325 318 312 309 306 303 300 299 301 301 298 295 293 293 293 290 288 286 284 281 280 282 283 277 264 265 280 287 289 287 285 282 279 279 282 284 285 287 290 292 295 299 303 309 316 321 322 325 329 333 338 344 351 357 364 371 380 392 408 428 435 426 421 429 438 426 414 420 447 503 541 555 560 563 566 573 575 568 564 571 590 605 611 617 617 612 608 613 606 595 591 587 587 600 616 631 639 644 640 625 607 586 562 549 562 590 617 642 650 652 653 653 651 649 648 647 642 632 618 605 592 584 587 584 572 564 563 565 571 569 562 562 564 557 548 539 535 543 555 568 576 574 565 562 569 575 579 580 581 584 585 590 601 611 622 632 643 654 665 676 678 681 682 682 680 684 689 690 689 694 697 701 706 708 710 710 686 626 537 453 384 350 330 323 320 318 318 318 318 318 318 318 318 318 318 318 319 323 333 351 375 410 448 481 511 541 568 593 599 588 567 548 528 508 489 475 465 458 457 459 461 454 447 441 439 438 440 453 469 485 496 506 504 494 482 477 476 481 491 504 506 502 507 516 525 533 540 545 553 554 542 528 515 504 513 525 532 535 535 534 538 545 554 559 565 571 577 579 575 570 563 552 543 536 531 534 542 543 522 496 491 512 523 527 528 537 547 551 550 550 545 541 542 547 550 549 545 540 533 531 536 543 546 543 540 539 538 537 537 537 539 543 547 548 546 546 547 546 547 548 549 549 547 545 542 541 540 540 541 542 543 542 540 541 545 549 554 560 573 590 603 607 603 599 598 602 606 607 603 596 594 598 603 603 596 588 581 579 579 577 578 581 585 591 600 609 619 626 634 640 649 659 659 666 674 683 689 693 700 700 695 691 692 694 685 677 676 679 680 683 687 690 689 681 671 654 642 638 646 660 669 666 661 657 660 666 672 676 683 698 729 767 798 823 846 874 898 906 914 924 935 951 967 997 1025 1049 1055 1029 991 977 999 1032 1058 1079 1093 1100 1094 1070
